1.240022153901775948e+00,3.515914848662472281e+00,3.245347463600827709e+00,5.805322544009815927e-02,-9.983134893489123973e-01,0.000000000000000000e+00,2.387370538801135069e+02
-3.641021886364879945e-02,4.484828249572668568e+00,5.178451313022677915e+00,5.805654756294301166e-02,0.000000000000000000e+00,9.983132961576099973e-01,2.407311210228754703e+02
-1.120161652300798671e+00,5.340292568864962952e+00,6.974208423269993240e+00,1.217560744469132483e-01,-4.271489298791252276e-01,-8.959460084393455759e-01,2.427251881656374337e+02
-2.029791973924333082e+00,6.094505632796209049e+00,8.637572918746235118e+00,-0.000000000000000000e+00,-0.000000000000000000e+00,-1.000000000000000000e+00,2.447192553083993971e+02
-2.783551889105053245e+00,6.759666300930444294e+00,1.017349053208429766e+01,5.805322569842741309e-02,0.000000000000000000e+00,-9.983134893338903026e-01,2.467133224511613605e+02
-3.398042025761543350e+00,7.346303208555502451e+00,1.158676212969541375e+01,9.311524530098863606e-01,0.000000000000000000e+00,3.646300992151790821e-01,2.487073895939233239e+02
-3.886885572814401169e+00,7.861573549469173194e+00,1.288190722813977018e+01,8.948040391273959226e-01,-4.464591039081523549e-01,-9.941183397516288199e-06,2.507014567366852873e+02
-4.262133761079773819e+00,8.310937937158259459e+00,1.406330106842835903e+01,4.034591077821900740e-01,-5.855722676019796680e-01,-7.030831158284734927e-01,2.526955238794472507e+02
-4.399481795994401701e+00,8.492506774672587966e+00,1.455723932652993113e+01,3.983341986281430658e-01,-5.781340796500805679e-01,-7.121031190427615787e-01,2.535789842201212423e+02
-4.652621361576073866e+00,8.866728175723361360e+00,1.560873064916741271e+01,3.930901432797945239e-01,-5.705229653573762327e-01,-7.210989427645118077e-01,2.555730513628832057e+02
-4.820752394012489894e+00,9.188280890651258304e+00,1.655711161191865344e+01,3.877267293789688485e-01,-5.627386165115696448e-01,-7.300638552974201279e-01,2.575671185056451691e+02
-4.915382474202084850e+00,9.462701397466839026e+00,1.740673562147910758e+01,3.822439294533002130e-01,-5.547809932398327648e-01,-7.389909525399651624e-01,2.595611856484071609e+02
-4.947885839144509745e+00,9.695567838766278257e+00,1.816194982444135420e+01,3.766419096975534564e-01,-5.466503367538361191e-01,-7.478731718589038957e-01,2.615552527911691527e+02
-4.929517672918180438e+00,9.892512675309101056e+00,1.882709538280834138e+01,3.709210383082457430e-01,-5.383471814464467764e-01,-7.567033074917801638e-01,2.635493199339311445e+02
-4.871428155381088310e+00,1.005923568133616541e+01,1.940650774913016363e+01,3.650818932829984487e-01,-5.298723662115487620e-01,-7.654740274642084508e-01,2.655433870766931364e+02
-4.782476177804624307e+00,1.020024787604895167e+01,1.990424024774282685e+01,3.591252695947439455e-01,-5.212270448565383685e-01,-7.741778919916421087e-01,2.675374542194551282e+02
-4.667051965128476532e+00,1.031757062599138841e+01,2.032378763812729261e+01,3.530521856506611544e-01,-5.124126954766908826e-01,-7.828073733183682492e-01,2.695315213622171200e+02
-4.527300437392997701e+00,1.041194652157042100e+01,2.066836302994460439e+01,3.468638889466301722e-01,-5.034311286619207459e-01,-7.913548769288051288e-01,2.715255885049791118e+02
-4.365330144288822822e+00,1.048408917704288434e+01,2.094117478022137391e+01,3.405618608301537731e-01,-4.942844944095872162e-01,-7.998127640480374723e-01,2.735196556477411036e+02
-4.189451672166577545e+00,1.053350195798334710e+01,2.114093704187293454e+01,3.341478202881724147e-01,-4.849752876220514430e-01,-8.081733753301771905e-01,2.754505975854880830e+02
-3.990180215741656600e+00,1.056406571600852651e+01,2.128385956180834881e+01,3.276237266810367310e-01,-4.755063520747085937e-01,-8.164290556148969813e-01,2.774446647282500749e+02
-3.774769505906059308e+00,1.057435565087099683e+01,2.136451567036041510e+01,3.209917813501307893e-01,-4.658808827492585403e-01,-8.245721796146420202e-01,2.794387318710120667e+02
-3.545212461034732865e+00,1.056498406185700034e+01,2.138609700487994303e+01,3.142544280342467466e-01,-4.561024264380236781e-01,-8.325951783779531601e-01,2.814327990137740585e+02
-3.303479603953016763e+00,1.053654072148064458e+01,2.135179145767955688e+01,3.074143520387677131e-01,-4.461748805381184346e-01,-8.404905663583502884e-01,2.834268661565360503e+02
-3.051521748114798260e+00,1.048959410392852121e+01,2.126478337809406582e+01,3.004744781119559338e-01,-4.361024899691368084e-01,-8.482509689037005529e-01,2.854209332992980421e+02
-2.791272649955951035e+00,1.042469259623235445e+01,2.112825377431795104e+01,2.934379669940619939e-01,-4.258898421646011845e-01,-8.558691499682663517e-01,2.874150004420600339e+02
-2.524651630943719027e+00,1.034236569485097412e+01,2.094538051503266018e+01,2.863082106174492103e-01,-4.155418601055204109e-01,-8.633380398390184673e-01,2.894090675848220258e+02
-2.253566172785071320e+00,1.024312519035465918e+01,2.071933853083644905e+01,2.790888259492888546e-01,-4.050637933838048821e-01,-8.706507626596152738e-01,2.914031347275840176e+02
-1.990828576126488114e+00,1.013245840567789635e+01,2.046526003071266331e+01,2.717836474824540383e-01,-3.944612073037033761e-01,-8.778006635299598903e-01,2.933179972170450469e+02
-1.716562537204124661e+00,1.000168714884902066e+01,2.016523322344491120e+01,2.643967183947870669e-01,-3.837399700505457201e-01,-8.847813349566513441e-01,2.953120643598070387e+02
-1.443446231055622420e+00,9.855437382355983544e+00,1.983142199765778457e+01,2.569322804117185055e-01,-3.729062379775557878e-01,-8.915866424301457371e-01,2.973061315025690305e+02
-1.173365346328152370e+00,9.694163001039962424e+00,1.946699172235176789e+01,2.493947624220091419e-01,-3.619664390829733236e-01,-8.982107489081065932e-01,2.993001986453310224e+02
-9.082063337933256042e-01,9.518306022737800021e+00,1.907510582517024034e+01,2.417887679109103904e-01,-3.509272547708007783e-01,-9.046481379913150489e-01,3.012942657880930142e+02
-6.498589105417815759e-01,9.328297761458799187e+00,1.865892599292087084e+01,2.341190612890297063e-01,-3.397956000087989925e-01,-9.108936355885927094e-01,3.032883329308550060e+02
-4.002185601876466214e-01,9.124560008352986529e+00,1.822161237198757178e+01,2.263905532083769212e-01,-3.285786020164987997e-01,-9.169424298803542372e-01,3.052824000736169978e+02
-1.611890322323678293e-01,8.907506223494589648e+00,1.776632376864547780e+01,2.186082849692077834e-01,-3.172835776336130342e-01,-9.227900894064894333e-01,3.072764672163789896e+02
6.531515628493733683e-02,8.677542741577152441e+00,1.729621784929168271e+01,2.107774121321313310e-01,-3.059180095349865458e-01,-9.284325791230259028e-01,3.092705343591409815e+02
2.780389676957401579e-01,8.436295646103088686e+00,1.681416692338681784e+01,2.029031874593077156e-01,-2.944895214717996312e-01,-9.338662742931470584e-01,3.112646015019029733e+02
4.770693419200692231e-01,8.187827925084487646e+00,1.632247370831008126e+01,1.949909433162383132e-01,-2.830058527298887072e-01,-9.390879721012680426e-01,3.132586686446649651e+02
6.631795468628426393e-01,7.937405007983127980e+00,1.582315589254647392e+01,1.870460736715117422e-01,-2.714748320045460295e-01,-9.440949009035981554e-01,3.152527357874269569e+02
8.371629829254491062e-01,7.690276077030210544e+00,1.531823068080811368e+01,1.790740158357991552e-01,-2.599043508968731930e-01,-9.488847270545116563e-01,3.172468029301889487e+02
9.998341363361223921e-01,7.451687367387944683e+00,1.480971492190769290e+01,1.710802320833377799e-01,-2.483023372395791739e-01,-9.534555592746174479e-01,3.192408700729509405e+02
1.152029652044875174e+00,7.226895445302671916e+00,1.429962523660953799e+01,1.630701912990753788e-01,-2.366767284600221066e-01,-9.578059505532130480e-01,3.212349372157129324e+02
1.294609527522845083e+00,7.021180496926769266e+00,1.378997814546634437e+01,1.550493507926024861e-01,-2.250354451853247284e-01,-9.619348976043208266e-01,3.232290043584749242e+02
1.428458429188703915e+00,6.839859660492482618e+00,1.328279019664958227e+01,1.470231384160384236e-01,-2.133863652886404394e-01,-9.658418379213034033e-01,3.252230715012369160e+02
1.542024502402596919e+00,6.701795911280790996e+00,1.283132728992249838e+01,1.389969351172663237e-01,-2.017372985672770402e-01,-9.695266444996670785e-01,3.270118041938251849e+02
1.577686541310235890e+00,6.661828137420493512e+00,1.268623487024722607e+01,1.309760580524810536e-01,-1.900959622325954779e-01,-9.729896183207181748e-01,3.275894640035771204e+02
1.697250612847230222e+00,6.542882315456022724e+00,1.218921815313372115e+01,1.229657443730934885e-01,-1.784699573786553140e-01,-9.762314787098559377e-01,3.295835311463391122e+02
1.811068237726402463e+00,6.457372745286911631e+00,1.169988572636218116e+01,1.149711357918249549e-01,-1.668667465817608997e-01,-9.792533517021813072e-01,3.315775982891011040e+02
1.920146352020514202e+00,6.404377762968718635e+00,1.121931440388991774e+01,1.069972640215524351e-01,-1.552936327667008010e-01,-9.820567565645191843e-01,3.335716654318630958e+02
2.025479605458156751e+00,6.383045620026485345e+00,1.074858155463156351e+01,9.904903716835843086e-02,-1.437577394578989087e-01,-9.846435906367216884e-01,3.355657325746250876e+02
2.128052119579824986e+00,6.392592439753546074e+00,1.028876517076152375e+01,9.113122714753782438e-02,-1.322659925152654681e-01,-9.870161126661182172e-01,3.375597997173870795e+02
2.228839218665661370e+00,6.432300324506055489e+00,9.840943936055616348e+00,8.324845817826648231e-02,-1.208251034355952436e-01,-9.891769248171528028e-01,3.395538668601490713e+02
2.328638000111205475e+00,6.500012702047603064e+00,9.406017663838564857e+00,7.540519639946702268e-02,-1.094415542812482572e-01,-9.911289535436154097e-01,3.415479340029110631e+02
2.427883658795782829e+00,6.590629270948455520e+00,8.984527723593627613e+00,6.760574063635069186e-02,-9.812158427889815238e-02,-9.928754295134961660e-01,3.435420011456730549e+02
2.526800587650436025e+00,6.697601022108335300e+00,8.576836705727584942e+00,5.985421433436731442e-02,-8.687117811263234124e-02,-9.944198667764733157e-01,3.455360682884350467e+02
2.625567130233919411e+00,6.814418445144198699e+00,8.183308075003596471e+00,5.215455866505689514e-02,-7.569605591792760713e-02,-9.957660413615856410e-01,3.475301354311970385e+02
2.724316028430888714e+00,6.934595322485289870e+00,7.804306193591417085e+00,4.451052679672322376e-02,-6.460166496622206378e-02,-9.969179694878963494e-01,3.495242025739590304e+02
2.776689904636383321e+00,6.997804342810336919e+00,7.608502389035167290e+00,3.692567931208280696e-02,-5.359317301418563273e-02,-9.978798855641959342e-01,3.505807969360744778e+02
2.875656557962710469e+00,7.111214671602183124e+00,7.248722363099049382e+00,2.940338074519989464e-02,-4.267546327749829199e-02,-9.986562201452529042e-01,3.525748640788364696e+02
2.974912691598406767e+00,7.211895424042214842e+00,6.904308836267282423e+00,2.194679720117874780e-02,-3.185313097612103156e-02,-9.992515780020707616e-01,3.545689312215984614e+02
3.059722349113881634e+00,7.283867819406914634e+00,6.623406632926130300e+00,1.455889501431492129e-02,-2.113048138676301008e-02,-9.996707164523355171e-01,3.562606312467329417e+02
3.161093891786059817e+00,7.348234169992783116e+00,6.305600353372021516e+00,7.242440393735244224e-03,-1.051152932857148982e-02,-9.999185240849965961e-01,3.582546983894949335e+02
3.179300804606926434e+00,7.357351989218443578e+00,6.250487376746924895e+00,-0.000000000000000000e+00,-0.000000000000000000e+00,-1.000000000000000000e+00,3.586094008592694422e+02
3.283265739440238917e+00,7.392879483152766440e+00,5.948552221986320276e+00,0.000000000000000000e+00,-0.000000000000000000e+00,-1.000000000000000000e+00,3.606034680020314340e+02
3.372551805179950346e+00,7.399137469575290282e+00,5.707588785195697234e+00,-6.835199162688035956e-01,0.000000000000000000e+00,-7.299318626172500712e-01,3.622658749230376998e+02
3.484131001945707240e+00,7.375672483809140978e+00,5.431146921080219236e+00,-9.978459301533173509e-01,-0.000000000000000000e+00,-6.560106459853294603e-02,3.642599420657996916e+02
3.563897934805346779e+00,7.339720875546055900e+00,5.248801348423815405e+00,-9.978458777111799405e-01,0.000000000000000000e+00,-6.560186228153086496e-02,3.656284866516324996e+02
3.685928324225831165e+00,7.257449674223273028e+00,4.993508453214202447e+00,-9.978458252684040408e-01,-0.000000000000000000e+00,-6.560265996449830828e-02,3.676225537943944914e+02
3.816565845816143110e+00,7.137497453724789942e+00,4.751991656513613549e+00,-9.986916257458986479e-01,2.909780240528572065e-02,-4.205180804908123515e-02,3.696166209371564833e+02
3.894310897786314563e+00,7.054398992549454128e+00,4.619934683935638553e+00,-9.980588010004429744e-01,5.990981771809246459e-02,-1.701303872161217395e-02,3.707487656045935864e+02
3.901606707858764622e+00,7.046287136460837708e+00,4.607808539111715618e+00,-9.956733090622860161e-01,9.243298303396883797e-02,9.529179838750859166e-03,3.708537006656698054e+02
4.044783787240430861e+00,6.875640134732219799e+00,4.383898011187523203e+00,-9.912391401558093840e-01,1.266260291065672838e-01,3.756082767823961527e-02,3.728477678084317972e+02
4.196335235112463202e+00,6.674737649735270395e+00,4.172876530077124890e+00,-9.844454716288878471e-01,1.624007138630374214e-01,6.703075060114158101e-02,3.748418349511937890e+02
4.354943919990684087e+00,6.448689185382122879e+00,3.974509093784052816e+00,-9.749775239234276247e-01,1.996134779954730765e-01,9.784317680192568256e-02,3.768359020939557809e+02
4.519337339018950850e+00,6.202557668618537079e+00,3.788561502247743018e+00,-9.625314323926900117e-01,2.380586205727105442e-01,1.298512026401556774e-01,3.788299692367177727e+02
4.688285701179636611e+00,5.941371940021110909e+00,3.614800342505039232e+00,-9.468329496171837834e-01,2.774643610732284715e-01,1.628523682770645631e-01,3.808240363794797645e+02
4.860600152098752957e+00,5.670139182325447003e+00,3.452992973901197082e+00,-9.276590686380281614e-01,3.174932669986281208e-01,1.965875829857117452e-01,3.828181035222417563e+02
5.035131137836793336e+00,5.393857317077440428e+00,3.302907513349467639e+00,-9.048607873474777685e-01,3.577483638331959148e-01,2.307445854090056370e-01,3.848121706650037481e+02
5.210766905445067820e+00,5.117527399551763168e+00,3.164312820638342849e+00,-8.783843965429115608e-01,3.977857136313948105e-01,2.649667487453982173e-01,3.868062378077657399e+02
5.386432138452757812e+00,4.846166042106317740e+00,3.036978483785535143e+00,-8.482881321560696852e-01,4.371333409818436433e-01,2.988673402117030253e-01,3.888003049505277318e+02
5.559897494918168981e+00,4.583720804905651924e+00,2.920670612199652627e+00,-8.147510635928436606e-01,4.753152254798633791e-01,3.320484012931799733e-01,3.907943720932897236e+02
5.726577578666907087e+00,4.332005603344320832e+00,2.815147629621043368e+00,-7.780718694871121555e-01,5.118779335810190734e-01,3.641224341147575871e-01,3.927884392360517154e+02
5.880699505069721944e+00,4.091836372921340725e+00,2.720164451051403809e+00,-7.386566335567138486e-01,5.464166712964881878e-01,3.947343398184759433e-01,3.947825063788137072e+02
6.016480348734444483e+00,3.864141692027497577e+00,2.635476659460656901e+00,-6.969966652799552964e-01,5.785973930700017975e-01,4.235808132118586977e-01,3.967765735215756990e+02
6.128120500495699119e+00,3.649965376100197556e+00,2.560840490297734640e+00,-6.536391148602066492e-01,6.081722061658296763e-01,4.504247719343965617e-01,3.987706406643376909e+02
6.209797987365516470e+00,3.450878253583113064e+00,2.496012149459504670e+00,-6.091543107815428071e-01,6.349865178759849238e-01,4.751033022112084447e-01,4.007647078070996827e+02
6.217915293139082422e+00,3.427000378623399346e+00,2.488515487797724468e+00,-5.641040041049687481e-01,6.589778377834913936e-01,4.975287749094879919e-01,4.010142266657461505e+02
6.266743387457972325e+00,3.246120709710380581e+00,2.433384838493181324e+00,-5.190140700587405620e-01,6.801674641692261325e-01,5.176838956029686800e-01,4.030082938085081423e+02
6.287840546367190697e+00,3.086274882125291885e+00,2.387542614406899411e+00,-4.743539811403851836e-01,6.986471466914900841e-01,5.356122337998886485e-01,4.050023609512701341e+02
6.288386223102643946e+00,2.950458469753240554e+00,2.350744678918054831e+00,-4.305239386409214775e-01,7.145631119482018789e-01,5.514061092334846537e-01,4.069964280940321260e+02
6.287221976265200851e+00,2.932859989711130932e+00,2.346117009006575937e+00,-3.878493003221142321e-01,7.280996359375183635e-01,5.651936308799840880e-01,4.072825978988463476e+02
6.274525416213360351e+00,2.825100850324501423e+00,2.318283597140706309e+00,-3.465810902936717897e-01,7.394638308556397144e-01,5.771263212739057291e-01,4.092766650416083394e+02
6.256648119587696399e+00,2.747688708302935989e+00,2.298973291159118748e+00,-3.069009732732752571e-01,7.488726864429341434e-01,5.873682763851476585e-01,4.112707321843703312e+02
6.239326428359046162e+00,2.703205140451361288e+00,2.287936110698882697e+00,-2.689290459970952174e-01,7.565428262378026680e-01,5.960873428342612357e-01,4.132647993271323230e+02
6.225399405269379294e+00,2.693632483483667794e+00,2.284907561184689406e+00,-2.327330140198741182e-01,7.626829942020683095e-01,6.034484191214630755e-01,4.152588664698943148e+02
6.216676972983654181e+00,2.716416088812867002e+00,2.288655784766649326e+00,-5.294744752589631842e-01,-1.796754003837527100e-03,8.483239662559908245e-01,4.170829026806469528e+02
6.212045065141012401e+00,2.777233334809070087e+00,2.299612333396656272e+00,-5.565600067803487816e-01,-2.224323233196434657e-03,8.308044362175808217e-01,4.190769698234089446e+02
6.211744360134190401e+00,2.877049720400267407e+00,2.317756471786116990e+00,-5.847916019427927825e-01,-2.677502441297896670e-03,8.111791499279670248e-01,4.210710369661709365e+02
6.211939415114803964e+00,2.892199880045219551e+00,2.320498655715425684e+00,-6.141111470655332694e-01,-3.156875542989875244e-03,7.892132368293508504e-01,4.213228240200613754e+02
6.213904185349775844e+00,3.032337371698287320e+00,2.345608885809288502e+00,-6.444227086204884491e-01,-3.662625636054824777e-03,7.646606814709927535e-01,4.233168911628233673e+02
6.213929859404569100e+00,3.034076905447343542e+00,2.345918543544672996e+00,-6.755844323938241525e-01,-4.194400871556385260e-03,7.372706977145119245e-01,4.233385958860203573e+02
6.214816498479016182e+00,3.192403802260157075e+00,2.373787242477388038e+00,-7.074004117475842790e-01,-4.751163653192953806e-03,7.067970599141517596e-01,4.251304546140757452e+02
6.209946313982828592e+00,3.402149962929418958e+00,2.410351029016330582e+00,-7.396133878172380660e-01,-5.331031131347471058e-03,6.730108592501196085e-01,4.271245217568377370e+02
6.194627073026619968e+00,3.643928699106738112e+00,2.452683650881486876e+00,-7.718995074710901516e-01,-5.931120810838097848e-03,6.357168962453456640e-01,4.291185888995997288e+02
6.167727117820112959e+00,3.913453700469256447e+00,2.500378900291120754e+00,-8.038667025201984284e-01,-6.547421815251835107e-03,5.947734491778158272e-01,4.311126560423617207e+02
6.129905856222359617e+00,4.207129111405593314e+00,2.553029836130286334e+00,-8.350584516764215648e-01,-7.174718684539063522e-03,5.501144478157025119e-01,4.331067231851237125e+02
6.081785109296506064e+00,4.521715421945625479e+00,2.610229337306697150e+00,-8.649645898848935532e-01,-7.806598397615243344e-03,5.017721746636778501e-01,4.351007903278857043e+02
6.023950950821121531e+00,4.854018636269236353e+00,2.671570570956230295e+00,-8.930402773241766790e-01,-8.435569829835759537e-03,4.498976597387495113e-01,4.370948574706476961e+02
5.956954750470857540e+00,5.200882501823835824e+00,2.736646966654542101e+00,-9.187331379945360421e-01,-9.053315430920968326e-03,3.947752001208042483e-01,4.390889246134096879e+02
5.881314118608300667e+00,5.559180822072414152e+00,2.805052190645198174e+00,-9.415169905607061462e-01,-9.651076394083238016e-03,3.368272750386267500e-01,4.410829917561716798e+02
5.797513754419039600e+00,5.925809834349668570e+00,2.876380120082689285e+00,-9.609288185174439390e-01,-1.022014685509999021e-02,2.766068588103510750e-01,4.430770588989336716e+02
5.706006198869520318e+00,6.297680634449479342e+00,2.950224817288709112e+00,-9.766041742327281616e-01,-1.075242536902211964e-02,2.147758650777472911e-01,4.450711260416956634e+02
5.607212493717199209e+00,6.671711629669352384e+00,3.026180504020078210e+00,-9.883056573503816722e-01,-1.124095149065785712e-02,1.520709329846254010e-01,4.470651931844576552e+02
5.501522747554766113e+00,7.044821002095518203e+00,3.103841535746698188e+00,-9.959398360122962979e-01,-1.168034986998621287e-02,8.926036337991834213e-02,4.490592603272196470e+02
5.389296609624066647e+00,7.413919163926475875e+00,3.182802375937918260e+00,-9.995599466752806972e-01,-1.206711776969753881e-02,2.709792743444152177e-02,4.510533274699816388e+02
5.270863651890015156e+00,7.775901186603807247e+00,3.262657570355696812e+00,-9.993543911301793203e-01,-1.239972145008381987e-02,-3.372013992836904450e-02,4.530473946127436307e+02
5.146523659619668400e+00,8.127639185446009051e+00,3.343001721352936606e+00,-9.956236380311563883e-01,-1.267850353224850984e-02,-9.258956173234474119e-02,4.550414617555056225e+02
5.016546830466341866e+00,8.465974641363832376e+00,3.423429462175376692e+00,-9.887498864049908409e-01,-1.290543614995173782e-02,-1.490205081587677727e-01,4.570355288982676143e+02
4.881173881812468807e+00,8.787710641074125917e+00,3.503535431265433875e+00,-9.791643845483251063e-01,-1.308377492228912295e-02,-2.026472868455995446e-01,4.590295960410296061e+02
4.740616065876957386e+00,9.089604017023340532e+00,3.582914246566366590e+00,-9.673167051833905239e-01,-1.321767355441804716e-02,-2.532265487245721758e-01,4.610236631837915979e+02
4.595055091842418449e+00,9.368357367981669626e+00,3.661160479825154912e+00,-9.536489727168022679e-01,-1.331181068783889726e-02,-3.006267328971244379e-01,4.630177303265535897e+02
4.444642954004604185e+00,9.620610940972133207e+00,3.737868630892473121e+00,-9.385765302824440326e-01,-1.337106505597223695e-02,-3.448119943131871534e-01,4.650117974693155816e+02
4.289501664689897353e+00,9.842934354855625401e+00,3.812633102018145870e+00,-9.224752253969025206e-01,-1.340025787743657007e-02,-3.858236535228913300e-01,4.670058646120775734e+02
4.129722890425999715e+00,1.003181814550262629e+01,3.885048172140460832e+00,-9.056745906610792485e-01,-1.340396688473761283e-02,-4.237615715265358740e-01,4.689999317548395652e+02
4.120065792104735003e+00,1.004201861412528096e+01,3.889286492557810782e+00,-8.884557275214967076e-01,-1.338640634714531770e-02,-4.587670698288589533e-01,4.691187437908976676e+02
3.955750667033520518e+00,1.019358458811411161e+01,3.958922925168408380e+00,-8.710525829673444465e-01,-1.335136199212561686e-02,-4.910082879533426148e-01,4.711128109336596594e+02
3.837287723100188508e+00,1.027794162499138331e+01,4.006444598777000543e+00,-8.536554178943936977e-01,-1.330216792198377941e-02,-5.206683011554702478e-01,4.725207501521415452e+02
3.792392282226416889e+00,1.030576073559356942e+01,4.024054592155410504e+00,-8.364154875335000350e-01,-1.324171320613922072e-02,-5.479359353477957217e-01,4.730501080155749491e+02
3.620598486288301832e+00,1.038719478644645378e+01,4.088329125639628359e+00,-5.335785543036569711e-01,8.714309002340615840e-02,-8.412490762243913789e-01,4.750441751583369410e+02
3.443239915320840616e+00,1.042692245356567859e+01,4.148494575188707678e+00,-8.013779620807470749e-01,-2.209846538558350171e-01,-5.558409346670373230e-01,4.770382423010989328e+02
3.430304553474040841e+00,1.042829284256865385e+01,4.152651512423338076e+00,-4.199773332410635662e-01,-5.494551011810224761e-01,-7.223005824100358074e-01,4.771812185426532551e+02
3.246654083777358757e+00,1.042814059417529471e+01,4.208188842138332220e+00,-2.260011765575941911e-01,-2.999430390138237423e-01,-9.267996771372630782e-01,4.791752856854152469e+02
3.056942117232090084e+00,1.039082958127622547e+01,4.258718984162561227e+00,-0.000000000000000000e+00,-7.928181305841998719e-03,-9.999685714767146960e-01,4.811693528281772387e+02
2.862663883812567533e+00,1.031858781763308386e+01,4.304087152257563886e+00,-0.000000000000000000e+00,-4.806577624515451230e-02,-9.988441726084960059e-01,4.831634199709392306e+02
2.844083978797670387e+00,1.031012239690818788e+01,4.308139580986864559e+00,0.000000000000000000e+00,-2.474914700597494882e-02,-9.996936929492336033e-01,4.833523858999654976e+02
2.647873805405000169e+00,1.020500708805362144e+01,4.348406439540140056e+00,0.000000000000000000e+00,-1.406330184883507715e-03,-9.999990111172165630e-01,4.853464530427274894e+02
2.452867231569977768e+00,1.006981631521890996e+01,4.383827053899365112e+00,0.000000000000000000e+00,2.192454126060091463e-02,-9.997596283559925245e-01,4.873405201854894813e+02
2.262119338373456134e+00,9.906415264202141913e+00,4.414591492058225874e+00,1.623265359998383728e-01,2.139974314899478064e-02,-9.865050160558993531e-01,4.893345873282514731e+02
2.078919992892042323e+00,9.715907504527836025e+00,4.440874390337497424e+00,3.624796763957039980e-01,1.991092605361859114e-02,-9.317789647892643634e-01,4.913286544710134649e+02
1.906684046082171902e+00,9.498956562045336227e+00,4.462842532659822226e+00,5.806973323381141583e-01,1.701203849909388791e-02,-8.139417661979898577e-01,4.933227216137754567e+02
1.748844690748630137e+00,9.256108423405743579e+00,4.480662429327093577e+00,7.742631057621980339e-01,1.275902880804290901e-02,-6.327352133707674353e-01,4.953167887565374485e+02
1.608857062183984610e+00,8.987792664041139190e+00,4.494500327573812015e+00,9.061991786086043277e-01,7.964370312636781177e-03,-4.227760843456190298e-01,4.973108558992994404e+02
1.490201873637116980e+00,8.694323223355745256e+00,4.504522222103949147e+00,9.739591982088150468e-01,3.566623793018297833e-03,-2.266953008316697771e-01,4.993049230420614322e+02
1.396389088833678516e+00,8.375898828628312032e+00,4.510893865611937947e+00,9.978441539010536321e-01,0.000000000000000000e+00,-6.562807726492125848e-02,5.012989901848234240e+02
1.329324973478913874e+00,8.033999962338059575e+00,4.513794705695093334e+00,9.966391577580769878e-01,1.216536589761650095e-05,-8.191696451453028827e-02,5.032930573275854158e+02
1.287690191363952907e+00,7.672820274620731240e+00,4.513431822634169421e+00,9.951194399348746167e-01,2.469685212842872044e-05,-9.867775663120287311e-02,5.052871244703474076e+02
1.268593932676024050e+00,7.297926603291171155e+00,4.510026016112187897e+00,9.932589808772721574e-01,3.760009790625294185e-05,-1.159163297075751220e-01,5.072811916131093994e+02
1.269213318058442619e+00,6.914891152512689487e+00,4.503797892802887226e+00,9.910303351830852536e-01,5.087972064095086267e-05,-1.336370912514766585e-01,5.092752587558713913e+02
1.286789853251723903e+00,6.529304983033305199e+00,4.494967880353690326e+00,9.884046631996934451e-01,6.453913565691229840e-05,-1.518427397006541224e-01,5.112693258986333831e+02
1.318626060698383951e+00,6.146791600306029224e+00,4.483756241357457206e+00,9.853517882760867153e-01,7.858036124691502775e-05,-1.705340058939701087e-01,5.132633930413953749e+02
1.362082284580484526e+00,5.773020673193366648e+00,4.470383087313890336e+00,9.818402839626354517e-01,9.300381004013192590e-05,-1.897093780983500066e-01,5.152574601841573667e+02
1.414573666206715430e+00,5.413721916342681517e+00,4.455068392581407188e+00,9.778375956311383677e-01,1.078080683004998267e-04,-2.093648130602051849e-01,5.172515273269193585e+02
1.473567287116103852e+00,5.074699169781749397e+00,4.438032008320387689e+00,9.733102010393178682e-01,1.229896655233682107e-04,-2.294934365648499397e-01,5.192455944696813503e+02
1.518402315524896240e+00,4.845688589911984145e+00,4.424941784236109399e+00,9.682238142442931572e-01,1.385428375616770127e-04,-2.500852381411476921e-01,5.206787129899130377e+02
1.582050840218030441e+00,4.552632737643928174e+00,4.405739116875177608e+00,9.625436369310221840e-01,1.544592874770189621e-04,-2.711267658235333999e-01,5.226727801326750296e+02
1.645528427420378303e+00,4.296279020287381734e+00,4.385412255149620187e+00,9.562346606146222561e-01,1.707279493544517886e-04,-2.926008282476409428e-01,5.246668472754370214e+02
1.707275624979006423e+00,4.081518684958485466e+00,4.364167855461625223e+00,9.492620222518096673e-01,1.873347614087078313e-04,-3.144862127599428181e-01,5.266609144181990132e+02
1.744978823432813186e+00,3.967707838152502831e+00,4.350548215849346256e+00,9.415914145145858338e-01,2.042624557947577075e-04,-3.367574295977306398e-01,5.279071775398381305e+02
1.804559951500908754e+00,3.819269008438572754e+00,4.328345379362460221e+00,9.331895503091965915e-01,2.214903735530466720e-04,-3.593844934547594794e-01,5.299012446826001224e+02
1.863890877023355319e+00,3.716907662556578895e+00,4.305679083952213659e+00,9.240246790550901146e-01,2.389943139890959498e-04,-3.823327547815587590e-01,5.318953118253621142e+02
1.924188135931739208e+00,3.661323006195384533e+00,4.282709154383587347e+00,9.140671497891066366e-01,2.567464284148160175e-04,-4.055627938528018617e-01,5.338893789681241060e+02
1.987093805296383575e+00,3.651468685396017211e+00,4.259561591941185554e+00,9.032900133812941101e-01,2.747151684615538173e-04,-4.290303908316960846e-01,5.358834461108860978e+02
2.004435393926089937e+00,3.655392369842616507e+00,4.253353700460981379e+00,8.916696531339322052e-01,2.928652990065622489e-04,-4.526865846365779600e-01,5.364166375511807701e+02
2.072022340923660888e+00,3.692585514356332421e+00,4.230109063280544035e+00,8.791864299234269930e-01,3.111579850358696603e-04,-4.764778322432298152e-01,5.384107046939427619e+02
2.116624886261843752e+00,3.734274935654569472e+00,4.215598071005143943e+00,8.658253250202326834e-01,3.295509604166523086e-04,-5.003462780412911703e-01,5.396542793533500344e+02
2.192710322241983700e+00,3.827624134699449510e+00,4.192332760656250379e+00,8.515765610095967775e-01,3.479987845224291414e-04,-5.242301399537367956e-01,5.416483464961120262e+02
2.275088929005840033e+00,3.952477403351976282e+00,4.169056011886658197e+00,8.364361790886023496e-01,3.664531899417244952e-04,-5.480642152373379483e-01,5.436424136388740180e+02
2.363493996758297300e+00,4.103298416329805853e+00,4.145728171003753459e+00,8.204065496947666736e-01,3.848635211601409128e-04,-5.717805043003812981e-01,5.456364807816360099e+02
2.457628124007150916e+00,4.274622164801381352e+00,4.122309580950872743e+00,8.034967931741506808e-01,4.031772602577780623e-04,-5.953089456802685975e-01,5.476305479243980017e+02
2.557084907293691423e+00,4.461028302136218038e+00,4.098824987794249530e+00,7.857230882222067114e-01,4.213406314970501556e-04,-6.185782497846415984e-01,5.496246150671599935e+02
2.660951566163710869e+00,4.657569101383749910e+00,4.075394608717130218e+00,7.671088482510990403e-01,4.392992724398669816e-04,-6.415168134593368654e-01,5.516186822099219853e+02
2.666328294681148403e+00,4.667760557692944623e+00,4.074206835726509546e+00,7.476847496708322049e-01,4.569989552231449583e-04,-6.640536923032805960e-01,5.517200484667448563e+02
2.772949255300794835e+00,4.870321436558858075e+00,4.050950179207451818e+00,7.274886012119452516e-01,4.743863381541402495e-04,-6.861196033231302671e-01,5.537141156095068482e+02
2.880215153593402633e+00,5.075281999764177598e+00,4.027954678450615056e+00,7.065650496275636128e-01,4.914097251683672467e-04,-7.076479274054863211e-01,5.557081827522688400e+02
2.986102565683685484e+00,5.279159623714209992e+00,4.005304962495499055e+00,6.849651240335820068e-01,5.080198091843753918e-04,-7.285756795100513106e-01,5.577022498950308318e+02
3.088562037938021199e+00,5.478498047740748333e+00,3.983085682182597953e+00,6.627456283236904389e-01,5.241703751750964113e-04,-7.488444146705339755e-01,5.596963170377928236e+02
3.185515605386833204e+00,5.669858811196924364e+00,3.961381515517554242e+00,6.399683980230218561e-01,5.398189399345527852e-04,-7.684010399051779405e-01,5.616903841805548154e+02
3.274854214197973068e+00,5.849812772539674910e+00,3.940277173036698777e+00,6.166994441101519842e-01,5.549273080121530904e-04,-7.871985058991870510e-01,5.636844513233168072e+02
3.354713820801178858e+00,6.014478402047205741e+00,3.919898127754355421e+00,5.930080112843187923e-01,5.694620269559607555e-04,-8.051963575834264475e-01,5.656785184660787991e+02
3.424441751634058839e+00,6.158848606932185277e+00,3.900505319033786833e+00,5.689655815278782391e-01,5.833947295877582552e-04,-8.223611291198245077e-01,5.676725856088407909e+02
3.464537079549216969e+00,6.238976483037439458e+00,3.888702503167300595e+00,5.446448553982409235e-01,5.967023561862406112e-04,-8.386665758419893368e-01,5.689449861853399852e+02
3.521818881443825155e+00,6.340643118594516459e+00,3.871481227588720486e+00,5.201187432241232145e-01,6.093672548005155207e-04,-8.540937428751643745e-01,5.709390533281019771e+02
3.536830778305976697e+00,6.363957096358245913e+00,3.866929141175436069e+00,4.954593963828538006e-01,6.213771630757385653e-04,-8.686308769703962041e-01,5.715002730090640171e+02
3.586899765004604834e+00,6.425287095951460969e+00,3.852005439266407816e+00,4.707373053435973120e-01,6.327250796074281773e-04,-8.822731940939964046e-01,5.734943401518260089e+02
3.631227329226800027e+00,6.446502742989778767e+00,3.839523107738592955e+00,4.460204865254026596e-01,6.434090366826242290e-04,-8.950225201772603612e-01,5.754884072945880007e+02
3.670269610194597298e+00,6.425750704096597765e+00,3.829645324224677072e+00,4.213737746492421388e-01,6.534317891367495430e-04,-9.068868259406719368e-01,5.774824744373499925e+02
3.681974264190671420e+00,6.411145217582986611e+00,3.826919648115074679e+00,3.968582315841974739e-01,6.628004358743685639e-04,-9.178796787811818181e-01,5.781285174743189827e+02
3.715187407243529361e+00,6.343755177149294155e+00,3.819899524677667468e+00,3.725306770962903968e-01,6.715259913821799813e-04,-9.280196353930353359e-01,5.801225846170809746e+02
3.743161832641073605e+00,6.240065348123896349e+00,3.815309587883330966e+00,3.484433417399289690e-01,6.796229243938009318e-04,-9.373295982256143466e-01,5.821166517598429664e+02
3.765818832702390040e+00,6.104131271562867944e+00,3.812984861440694040e+00,3.246436376403928348e-01,6.871086798961935664e-04,-9.458361572816273988e-01,5.841107189026049582e+02
3.783129927347604671e+00,5.939992313342140839e+00,3.812744184776049927e+00,3.011740392643031394e-01,6.940031990794483501e-04,-9.535689363820445408e-01,5.861047860453669500e+02
3.791341537199236722e+00,5.828591252908245757e+00,3.813406944310521851e+00,2.780720635383596706e-01,7.003284498200313280e-04,-9.605599601376173524e-01,5.873211090407523898e+02
3.801052005317958393e+00,5.630827671023500791e+00,3.815635608148402635e+00,2.553703368517558636e-01,7.061079780408357999e-04,-9.668430547238492379e-01,5.893151761835143816e+02
3.805654578476463712e+00,5.415652335567684439e+00,3.819364510630609555e+00,2.330967355000819474e-01,7.113664879770017482e-04,-9.724532923780578875e-01,5.913092433262763734e+02
3.805287833308932388e+00,5.187094619476519952e+00,3.824363888870013106e+00,2.112745858904006568e-01,7.161294571321854315e-04,-9.774264865018956749e-01,5.933033104690383652e+02
3.800111994616016453e+00,4.949147092463550557e+00,3.830404060391366272e+00,1.899229111956758642e-01,7.204227896396093100e-04,-9.817987414913320610e-01,5.952973776118003570e+02
3.790308920242666524e+00,4.705775552577915022e+00,3.837255408572985527e+00,1.690567119798274121e-01,7.242725099157164021e-04,-9.856060590133873811e-01,5.972914447545623489e+02
3.776082183317305496e+00,4.460928987961343850e+00,3.844688368092576525e+00,1.486872694738939349e-01,7.277044969506437462e-04,-9.888840004482641888e-01,5.992855118973243407e+02
3.757657251557463773e+00,4.218549493219941660e+00,3.852473410376308305e+00,1.288224615433469500e-01,7.307442583320375874e-04,-9.916674036262066450e-01,6.012795790400863325e+02
3.735281763640950548e+00,3.982582164711541139e+00,3.860381029050210522e+00,1.094670828389340961e-01,7.334167421396777008e-04,-9.939901507935661185e-01,6.032736461828483243e+02
3.709225902934923713e+00,3.756984998993709191e+00,3.868181725392962900e+00,9.062316208188422872e-02,7.357461841562285823e-04,-9.958849839071944876e-01,6.052677133256103161e+02
3.679782869169595294e+00,3.545738818678441540e+00,3.875645993789173183e+00,7.229027083321451497e-02,7.377559873832010119e-04,-9.973833628344538349e-01,6.072617804683723080e+02
3.649815275266541814e+00,3.366143430673578685e+00,3.882081245544340309e+00,5.446581939023799335e-02,7.394686305952611911e-04,-9.985153617768203205e-01,6.091083425475972035e+02
3.614860786793350211e+00,3.193426608412651468e+00,3.888294502228229810e+00,3.714533661227235189e-02,7.409056025734914652e-04,-9.993095991867830818e-01,6.111024096903591953e+02
3.577516041640667055e+00,3.046965818226015532e+00,3.893499583458192692e+00,2.032273148722378575e-02,7.420873586936218951e-04,-9.997931965617941064e-01,6.130964768331211872e+02
3.538603222645211321e+00,2.930433638129904317e+00,3.897476993226600683e+00,3.990535107475306348e-03,7.430332966762309308e-04,-9.999917617316034235e-01,6.150905439758831790e+02
3.499816418617426539e+00,2.846600204748383600e+00,3.900027582390190428e+00,-1.741718878752641919e-02,0.000000000000000000e+00,-9.998483092623299262e-01,6.170846111186451708e+02
3.481024192533805461e+00,2.816332562679410678e+00,3.900812756131715187e+00,4.930538481194205076e-03,1.974095546449444738e-02,-9.997929708032731178e-01,6.180751402513814128e+02
3.445504697960057428e+00,2.780302552552498252e+00,3.901283358251530942e+00,1.064529351364108455e-05,0.000000000000000000e+00,-9.999999999433388798e-01,6.200692073941434046e+02
3.414927379747047187e+00,2.783283983911248427e+00,3.899878566922965639e+00,2.874166041047698239e-01,5.991756256693278049e-01,-7.472484628881156388e-01,6.220632745369053964e+02
3.391417631829533708e+00,2.827343077365596979e+00,3.896470041422833042e+00,8.466130617035071110e-06,6.062249577557686786e-01,-7.952932166957926707e-01,6.240573416796673882e+02
3.376785429391962357e+00,2.913676664801792437e+00,3.890942661588546958e+00,0.000000000000000000e+00,3.025577441558382347e-02,-9.995421892619207327e-01,6.260514088224293801e+02
3.371706244019762710e+00,3.027407072652327891e+00,3.884109575193501751e+00,1.014510983321466504e-02,0.000000000000000000e+00,-9.999485370490184266e-01,6.278533739737958967e+02
3.375525728005898785e+00,3.192145636913378937e+00,3.874386755719503750e+00,0.000000000000000000e+00,7.952806056684114111e-01,-6.062415015880094904e-01,6.298474411165578886e+02
3.381575453262257280e+00,3.298610948680851251e+00,3.868153190545981612e+00,0.000000000000000000e+00,3.025577447396480407e-02,-9.995421892601534797e-01,6.309446303047914171e+02
3.397908343511155671e+00,3.504052781953910234e+00,3.856101347116947853e+00,1.005388821744537281e-05,9.999999999494597613e-01,-0.000000000000000000e+00,6.328107444632017859e+02
3.424164298912056648e+00,3.759032051051506951e+00,3.840727381276976882e+00,-6.700825643701949219e-02,-0.000000000000000000e+00,-9.977524209789072618e-01,6.348048116059637778e+02
3.458334571620636844e+00,4.046487328443994613e+00,3.822722367235230401e+00,0.000000000000000000e+00,8.053019153493613455e-03,-9.999675739155312604e-01,6.367988787487257696e+02
3.499093079369526293e+00,4.361260829765312153e+00,3.802168403677526509e+00,-4.522926115448668294e-01,-6.824885462044352202e-01,-5.741435167636055326e-01,6.387929458914877614e+02
3.545086467886257253e+00,4.698284717863226767e+00,3.779147427635366263e+00,1.065309812990342326e-03,4.290253040927120565e-01,-9.032918429628147283e-01,6.407870130342497532e+02
3.594932951979904256e+00,5.052568375011816215e+00,3.753741219658581318e+00,-2.793467611515190185e-01,3.937469914031367576e-05,-9.601902860807274287e-01,6.427810801770117450e+02
3.647221032500263416e+00,5.419185892401479521e+00,3.726031408997882988e+00,-6.301618356590243941e-01,5.946884880764120862e-03,-7.764410444065045214e-01,6.447751473197737369e+02
3.700508088725007028e+00,5.793263746280448601e+00,3.696099478779116154e+00,-9.214903695048072274e-01,1.184601015686764444e-02,-3.882205184598791492e-01,6.467692144625357287e+02
3.753318845547863436e+00,6.169968630609021787e+00,3.664026771168775731e+00,-9.998929794933587578e-01,1.462974913980168157e-02,0.000000000000000000e+00,6.487632816052977205e+02
3.804143714476533322e+00,6.544495416505348828e+00,3.629894492530739925e+00,-9.998016900095607618e-01,1.171008067051784209e-02,1.610759649097604287e-02,6.507573487480597123e+02
3.851437007087090247e+00,6.912055209105963272e+00,3.593783718574488972e+00,-9.994420689078302722e-01,8.784918855711806168e-03,3.222384362447269779e-02,6.527514158908217041e+02
3.893615019214604622e+00,7.267863472735158759e+00,3.555775399495047839e+00,-9.988139736066776742e-01,5.856612566628016832e-03,4.833576540496295482e-02,6.547454830335836959e+02
3.929053983793479254e+00,7.607128195478289001e+00,3.515950365105115605e+00,-9.979179099538170172e-01,2.927520161864324757e-03,6.443038583702205557e-02,6.567395501763456878e+02
3.956570524690437463e+00,7.924933555618446590e+00,3.474408438517146980e+00,-9.967550301912023736e-01,0.000000000000000000e+00,8.049478112608049463e-02,6.587336173191076796e+02
3.977041275940518261e+00,8.217271722312510462e+00,3.431332545654420141e+00,-9.988630243651323015e-01,0.000000000000000000e+00,4.767240875119570925e-02,6.607276844618696714e+02
3.981229699636612551e+00,8.283483694740617409e+00,3.420884907842510536e+00,-9.994671534310988203e-01,0.000000000000000000e+00,3.264060680098336553e-02,6.612031382256728875e+02
3.997920634212305924e+00,8.545793507323882210e+00,3.376491406029325848e+00,-9.998461235277980030e-01,0.000000000000000000e+00,1.754221384077278567e-02,6.631972053684348793e+02
4.006133694048990002e+00,8.671243562214101530e+00,3.353211946688604339e+00,-9.999971506711196056e-01,0.000000000000000000e+00,2.387184459154999706e-03,6.642274644245836726e+02
4.022338428182353098e+00,8.893291591621206749e+00,3.307625100035164856e+00,-9.999178934329830959e-01,0.000000000000000000e+00,-1.281430421620472979e-02,6.662215315673456644e+02
4.038827817092469630e+00,9.083420060266137241e+00,3.261272586813319663e+00,-9.996064684403354050e-01,0.000000000000000000e+00,-2.805188500334394527e-02,6.682155987101076562e+02
4.055412553519461838e+00,9.239660923280109017e+00,3.214241809101717084e+00,-9.990614634567390739e-01,0.000000000000000000e+00,-4.331503475329237518e-02,6.702096658528696480e+02
4.071889391265837155e+00,9.359961167644559765e+00,3.166620125889126669e+00,-9.982819478911056921e-01,0.000000000000000000e+00,-5.859310978894877175e-02,6.722037329956316398e+02
4.088040274990298428e+00,9.442177699943632874e+00,3.118494858613248155e+00,-9.972674806046881724e-01,0.000000000000000000e+00,-7.387538242457972193e-02,6.741978001383936316e+02
4.103631414691574442e+00,9.484072013578330740e+00,3.069953296698037182e+00,-9.960181149164768488e-01,0.000000000000000000e+00,-8.915107827854873435e-02,6.761918672811556235e+02
4.104344771233108702e+00,9.485059345407668374e+00,3.067671928190626396e+00,-9.945344007381471396e-01,0.000000000000000000e+00,-1.044094140794527142e-01,6.762852252145947887e+02
4.119972946235951561e+00,9.483835625331682451e+00,3.018813971610898594e+00,-9.928173838021231434e-01,0.000000000000000000e+00,-1.196396356577019288e-01,6.782792923573567805e+02
4.137363551191498345e+00,9.437233842669785489e+00,2.969741822602993686e+00,-9.908686019795510669e-01,0.000000000000000000e+00,-1.348310558109299950e-01,6.802733595001187723e+02
4.147881804261603911e+00,9.394499854099365166e+00,2.942989765827790372e+00,-9.886900787183908745e-01,0.000000000000000000e+00,-1.499730917325572399e-01,6.813580020572466083e+02
4.169840312071174004e+00,9.286228779687720092e+00,2.893703348061464897e+00,-9.862843136648109521e-01,0.000000000000000000e+00,-1.650553016983490051e-01,6.833520692000086001e+02
4.196195170846130473e+00,9.138323174683858241e+00,2.844254433427293005e+00,-9.836542705629660599e-01,0.000000000000000000e+00,-1.800674207157949569e-01,6.853461363427705919e+02
4.227608132306897915e+00,8.954999667438180211e+00,2.794634832085632681e+00,-9.808033625584897663e-01,0.000000000000000000e+00,-1.949993948553674916e-01,6.873402034855325837e+02
4.264776571727229459e+00,8.740373418678855089e+00,2.744836343291664704e+00,-9.777354350590485854e-01,0.000000000000000000e+00,-2.098414140008901529e-01,6.893342706282945755e+02
4.308433714018368832e+00,8.498468270479042630e+00,2.694850754877090804e+00,-9.744547463306374446e-01,0.000000000000000000e+00,-2.245839427779575959e-01,6.913283377710565674e+02
4.359348975674905979e+00,8.233226654725774196e+00,2.644669842731120379e+00,-9.709659460304902456e-01,-0.000000000000000000e+00,-2.392177494441311558e-01,6.933224049138185592e+02
4.418044169582448610e+00,7.948442225024535901e+00,2.594280790287649019e+00,-4.786746219082346765e-01,-2.325610674843665016e-01,8.466321256788810201e-01,6.953164720565805510e+02
4.483754540214341056e+00,7.650886718076933768e+00,2.544186014274361973e+00,-8.351919860094663139e-01,5.440521584196161831e-01,-8.038404956532353707e-02,6.972899776217335557e+02
4.557590365628845674e+00,7.337811765658362795e+00,2.493315229886105655e+00,-8.371478551805850987e-01,5.451421624270581523e-01,-4.476037657233282452e-02,6.992840447644955475e+02
4.638710732906675460e+00,7.015651476886294979e+00,2.442161443117246034e+00,-8.380613697602506962e-01,5.455392537804745201e-01,-6.329541864564879917e-03,7.012781119072575393e+02
4.726922330288956253e+00,6.687822276539344912e+00,2.390698035459095205e+00,-8.376601029220608341e-01,5.450653158679524823e-01,3.506213642052476154e-02,7.032721790500195311e+02
4.822064818113208418e+00,6.357728449678369920e+00,2.338898368703785646e+00,-8.356250684472971146e-01,5.435121130100595277e-01,7.953193065549450658e-02,7.052662461927815230e+02
4.924010567215915124e+00,6.028770490902693346e+00,2.286735783257397792e+00,-8.315903065352709955e-01,5.406411240897854853e-01,1.271406190778820722e-01,7.072603133355435148e+02
5.032664497451643904e+00,5.704353446793728466e+00,2.234183596451740250e+00,-8.251468275859878965e-01,5.361862353501890555e-01,1.778680239553237230e-01,7.092543804783055066e+02
5.147964016144046973e+00,5.387895271729160385e+00,2.181215100854677402e+00,-8.158529529995516283e-01,5.298606145074949980e-01,2.315851641959199014e-01,7.112484476210674984e+02
5.269325562204164370e+00,5.082357475806635883e+00,2.127818411536332999e+00,-8.032531430662128713e-01,5.213691143868373068e-01,2.880254063754361105e-01,7.132425147638294902e+02
5.374787030147203382e+00,4.834910240386357749e+00,2.082591235914808436e+00,-7.869068701383132858e-01,5.104271989128343900e-01,3.467587811997290825e-01,7.149203461390011398e+02
5.502062758452794355e+00,4.553821044910069560e+00,2.028515118544417906e+00,-7.664276723870235841e-01,4.967864487641869276e-01,4.071754502959102906e-01,7.169144132817631316e+02
5.629678130781429424e+00,4.288847167661829829e+00,1.974089159152700779e+00,-7.415300574702283765e-01,4.802650930058054435e-01,4.684854472748590792e-01,7.189084804245251235e+02
5.755460578053133602e+00,4.041745360405755605e+00,1.919345927335174284e+00,-7.120786792271527332e-01,4.607799027060375252e-01,5.297412914360445368e-01,7.209025475672871153e+02
5.877247736139517897e+00,3.814349716596221462e+00,1.864317972517361088e+00,-6.781310787522872863e-01,4.383737597661238050e-01,5.898870118749623970e-01,7.228966147100491071e+02
5.992179055079609462e+00,3.607576339686817235e+00,1.809071829575893853e+00,-6.399637178619042022e-01,4.132322258100148415e-01,6.478314343812517917e-01,7.248906818528110989e+02
6.095977254985820437e+00,3.420439204173330694e+00,1.753742026613744676e+00,-5.980724770218882602e-01,3.856834120407490740e-01,7.025365598355071128e-01,7.268847489955730907e+02
6.124390885646832317e+00,3.368161332040831901e+00,1.737375089469539668e+00,-5.531437100873770607e-01,3.561786833305630173e-01,7.531060891612005870e-01,7.274746525178131833e+02
6.209402369066742366e+00,3.202215162330070086e+00,1.682134736046382084e+00,-5.059991202536664456e-01,3.252564071541348412e-01,7.988574089959352698e-01,7.294687196605751751e+02
6.273270367873952758e+00,3.057808652274265793e+00,1.627084217030726254e+00,-4.575244836747020538e-01,2.934953410340394031e-01,8.393639446804408433e-01,7.314627868033371669e+02
6.285676089808501565e+00,3.026467486890809688e+00,1.613989300213108047e+00,-4.085958521766707152e-01,2.614665590421764163e-01,8.744625023902765637e-01,7.319381129773122439e+02
