3.665990828069432883e+00,9.378890617010251063e+00,4.098724267994123593e+00,-4.871309273468877876e-01,8.262646171534340778e-02,-8.694114833877937265e-01,1.657742965309806209e+02
3.695054215614213877e+00,9.217583041754055628e+00,4.098384997778332206e+00,-4.628717997108008908e-01,8.022711715837693713e-02,-8.827872375068299693e-01,1.668997963271379774e+02
3.730429135748190461e+00,8.898804878537434959e+00,4.104259484409750414e+00,-4.379704384788644655e-01,7.773715931093727605e-02,-8.956220347227379364e-01,1.689227919871725021e+02
3.747935598518351341e+00,8.550700787748606757e+00,4.115220256117831710e+00,-4.124702882031862639e-01,7.516007626176322842e-02,-9.078652016053410101e-01,1.709457876472070268e+02
3.746793684854329509e+00,8.177184192604519453e+00,4.129625029031522843e+00,-3.864204944297754407e-01,7.250009893582105847e-02,-9.194688342401519110e-01,1.729687833072415515e+02
3.726906102001682264e+00,7.782085405235847020e+00,4.145959844642730374e+00,-3.598755284174256497e-01,6.976218027900564500e-02,-9.303885437004252301e-01,1.749917789672760762e+02
3.690051571732088309e+00,7.369197601348025373e+00,4.162983615349899580e+00,-3.328946852671518797e-01,6.695195858069562245e-02,-9.405841609144248716e-01,1.770147746273106009e+02
3.639520635605465237e+00,6.942160926547113142e+00,4.179669871018532490e+00,-3.055414639483794992e-01,6.407570520827833571e-02,-9.500203775763670366e-01,1.790377702873451256e+02
3.578944454160356781e+00,6.504445945907582960e+00,4.195043108635095663e+00,-2.778828429721810767e-01,6.114025768146697654e-02,-9.586673012428983398e-01,1.810607659473796502e+02
3.511912488745728478e+00,6.059421280166038315e+00,4.208117950777703342e+00,-2.499884702608619336e-01,5.815293965222158995e-02,-9.665009055073042754e-01,1.830837616074141749e+02
3.441999066975438115e+00,5.610375931337763689e+00,4.217891735277449428e+00,-2.219297897488826110e-01,5.512146993421041669e-02,-9.735033600220950323e-01,1.851067572674486996e+02
3.372790058055993967e+00,5.160540851144070018e+00,4.223336974892292872e+00,-1.937791301265126276e-01,5.205386320284851459e-02,-9.796632299178483771e-01,1.871297529274832243e+02
3.307909855274097755e+00,4.713109891744493574e+00,4.223393630287023193e+00,-1.656087826929005802e-01,4.895832532914976692e-02,-9.849755395317899564e-01,1.891527485875177490e+02
3.251048866696265360e+00,4.271260272457046092e+00,4.216961138212420579e+00,-1.374900954145591991e-01,4.584314649484888538e-02,-9.894417009517777473e-01,1.911757442475522737e+02
3.205991720374241627e+00,3.838172691173870721e+00,4.202890134935813649e+00,-1.094926090011766745e-01,4.271659525253877765e-02,-9.930693133231668357e-01,1.931987399075867984e+02
3.176646397123078280e+00,3.417051204997493929e+00,4.179973812679568468e+00,-8.168325823985102263e-02,3.958681654682714990e-02,-9.958718438027102104e-01,1.952217355676213231e+02
3.167074512305970924e+00,3.011143001192373880e+00,4.146938844061491380e+00,-5.412565819560512248e-02,3.646173641763601758e-02,-9.978682051765670469e-01,1.972447312276558478e+02
3.181522978100594923e+00,2.623758176820818910e+00,4.102435806291304665e+00,-2.687949048559825499e-02,3.334897569230360626e-02,-9.990822482716369413e-01,1.992677268876903725e+02
3.224457289509242486e+00,2.258289643389539414e+00,4.045029033118161088e+00,0.000000000000000000e+00,3.025577447396480407e-02,-9.995421892601534797e-01,2.012907225477248971e+02
3.299850949110131104e+00,1.918221604734516639e+00,3.972849763786026500e+00,1.014510983321466504e-02,0.000000000000000000e+00,-9.999485370490184266e-01,2.033137182077594218e+02
3.341598469868265919e+00,1.797727522693196578e+00,3.939645374733625527e+00,9.311524530098863606e-01,0.000000000000000000e+00,3.646300992151790821e-01,2.040790896142673034e+02
3.389091737616864108e+00,1.699195332210823306e+00,3.906559624549589493e+00,8.637515197231762087e-01,4.247103224754129602e-01,-2.712092442353952748e-01,2.047358554125768251e+02
3.571430797572689109e+00,1.419492137313693947e+00,3.792770593018706560e+00,2.874166041047698239e-01,5.991756256693278049e-01,-7.472484628881156388e-01,2.067588510726113498e+02
3.789328730795431976e+00,1.175970876074643678e+00,3.670878936095114842e+00,0.000000000000000000e+00,7.952806056684114111e-01,-6.062415015880094904e-01,2.087818467326458745e+02
3.829975714581797863e+00,1.140242326789241423e+00,3.650572591672081479e+00,8.466130617035071110e-06,6.062249577557686786e-01,-7.952932166957926707e-01,2.091091292335386527e+02
4.112746351053859328e+00,9.459850729956691406e-01,3.523665362327448314e+00,9.903657710662005218e-06,8.119478740224839175e-01,-5.837299459272978774e-01,2.111321248935731774e+02
4.183488954157673412e+00,9.087774330773134013e-01,3.494858105782319146e+00,1.048634949874925958e-05,9.564595327886854514e-01,-2.918649722520432754e-01,2.115907316650110488e+02
4.519078789284987963e+00,7.758179938850622293e-01,3.369291397812407940e+00,1.005388821744537281e-05,9.999999999494597613e-01,-0.000000000000000000e+00,2.136137273250455735e+02
4.813993749468350458e+00,7.031992188892811635e-01,3.266207074946363420e+00,-0.000000000000000000e+00,7.954343525492088007e-01,6.060397600691072029e-01,2.153196308915962902e+02
5.165043317921023558e+00,6.641402414536541343e-01,3.148396759163984537e+00,1.936224879167695173e-02,7.801557066966150478e-01,6.252856760157188276e-01,2.173426265516308149e+02
5.502502502327585532e+00,6.759497067869134623e-01,3.034477099013503043e+00,3.936806682077011177e-02,7.635502194191275960e-01,6.445472967438444778e-01,2.193656222116653396e+02
5.810155420371116541e+00,7.426356996096928897e-01,2.923098776579931446e+00,5.998409700488171320e-02,7.455633007641826460e-01,6.637298190228655415e-01,2.213886178716998643e+02
6.007510347780995019e+00,8.350123586030436806e-01,2.840324703592007616e+00,8.116633784772858684e-02,7.261498329650006855e-01,6.827286764779182393e-01,2.229102350488358013e+02
6.209801377545880463e+00,1.015402868963378724e+00,2.731236771322417933e+00,1.028595557948078915e-01,7.052766599020197091e-01,7.014304988943277364e-01,2.249332307088703260e+02
6.342862233033407904e+00,1.252785037122287060e+00,2.624049994866079150e+00,1.249969961508305555e-01,6.829251011140867744e-01,7.197145664925670427e-01,2.269562263689048507e+02
6.410121780960420956e+00,1.541439019143498568e+00,2.520310092540307689e+00,1.475004691516428879e-01,6.590933595328110073e-01,7.374547816780349097e-01,2.289792220289393754e+02
6.421512869133850998e+00,1.875888848029316103e+00,2.421590154514955184e+00,1.702808773752702842e-01,6.337986691362592628e-01,7.545221466606626404e-01,2.310022176889739001e+02
6.386484988386201600e+00,2.250872854993857253e+00,2.329501022548662537e+00,1.932392310131466617e-01,6.070790152771242676e-01,7.707876937312925225e-01,2.330252133490084248e+02
6.314078714579926199e+00,2.661313136211219010e+00,2.245703404015429783e+00,2.162681686126405323e-01,5.789942609281968355e-01,7.861257692361609539e-01,2.350482090090429494e+02
6.210754153391612853e+00,3.101610060127119262e+00,2.171218578621303408e+00,2.392539642501102515e-01,5.496265299259376347e-01,8.004175274143983110e-01,2.370712046690774741e+02
6.079460082161483037e+00,3.564959199073288509e+00,2.105732189496440476e+00,2.620789608519222824e-01,5.190797349577142006e-01,8.135544524093061280e-01,2.390942003291119988e+02
5.923158897627937236e+00,4.044668817732405053e+00,2.048045554938930035e+00,2.846243281580512763e-01,4.874781922455270755e-01,8.254417023058689962e-01,2.411171959891465235e+02
5.745829722271292184e+00,4.535444198061520993e+00,1.996524543627473447e+00,3.067730080976056595e-01,4.549643322031106107e-01,8.360010633520293943e-01,2.431401916491810482e+02
5.551240775051318188e+00,5.032688226516508045e+00,1.949335391968716857e+00,3.284126855400863465e-01,4.216955884960607581e-01,8.451733186863563674e-01,2.451631873092155729e+02
5.342980695497562493e+00,5.531813597109930924e+00,1.904676913217289602e+00,3.494386127834235856e-01,3.878406177740327254e-01,8.529198737868951552e-01,2.471861829692500976e+02
5.124485990768339327e+00,6.028214218165794946e+00,1.860766952000355356e+00,3.697561239145140122e-01,3.535750594639650579e-01,8.592235367776933641e-01,2.492091786292846223e+02
4.924940780101897175e+00,6.460923599129249517e+00,1.821076292282624687e+00,3.892826998196385335e-01,3.190770815584398901e-01,8.640884188815876055e-01,2.509984920526586052e+02
4.695334525133739945e+00,6.938347221935194931e+00,1.773574329411822470e+00,4.079494829390226673e-01,2.845229695700965400e-01,8.675389899922643089e-01,2.530214877126931299e+02
4.464943187046208628e+00,7.399053985943441880e+00,1.721697619443035121e+00,4.257021875860477200e-01,2.500830010401293713e-01,8.696183876133347646e-01,2.550444833727276546e+02
4.236840113865544488e+00,7.838073497148516644e+00,1.663609722315418482e+00,4.425014004997495087e-01,2.159178104928401731e-01,8.703861267665853330e-01,2.570674790327621508e+02
4.012781042908499352e+00,8.249940441490107190e+00,1.597713403881601213e+00,4.583223111721832499e-01,1.821753959707270720e-01,8.699153890952253665e-01,2.590904746927966471e+02
3.791928184652585632e+00,8.628348460177594603e+00,1.522924540222629464e+00,4.731539475423233165e-01,1.489888564058781950e-01,8.682900797498407375e-01,2.611134703528311434e+02
3.573081490680695804e+00,8.966796284893440827e+00,1.438363368857614955e+00,4.869980169457630015e-01,1.164748872893298787e-01,8.656018323235182832e-01,2.631364660128656396e+02
3.356915971894760098e+00,9.259206191711676581e+00,1.343047276696701431e+00,4.998674639238194217e-01,8.473300727813808109e-02,8.619471190206347000e-01,2.651594616729001359e+02
3.145027542194642312e+00,9.499528834446524073e+00,1.235898090099974755e+00,5.117848566362397378e-01,5.384544522540980066e-02,8.574245905887588615e-01,2.671824573329346322e+02
2.951093824839133184e+00,9.671380714980660542e+00,1.122130530453015584e+00,5.227807044904267952e-01,2.387758785499167688e-02,8.521327336810388120e-01,2.690882514072835079e+02
2.753475830918688416e+00,9.789196264013956039e+00,9.845325705321165133e-01,5.328917941397669500e-01,-5.121127084789908225e-03,8.461678969305570508e-01,2.711112470673180042e+02
2.566843216873566647e+00,9.836913546972166245e+00,8.275270190741556009e-01,0.000000000000000000e+00,-2.786260007479053613e-02,9.996117623943168162e-01,2.731342427273525004e+02
2.525068908074150631e+00,9.837231277082217673e+00,7.855511376069357343e-01,-0.000000000000000000e+00,1.520023842410507010e-02,9.998844697023003825e-01,2.736212377370920308e+02
2.366106807708209914e+00,9.794636656996592805e+00,5.983116331932226695e-01,1.667830463243634778e-02,1.284379642757768267e-02,9.997784109731088220e-01,2.756442333971265271e+02
2.223103733778090785e+00,9.688164757432337737e+00,4.053225399731633649e-01,3.337561871863963664e-02,1.048034664608820873e-02,9.993879278885281492e-01,2.776672290571610233e+02
2.097431464657015798e+00,9.523148665956616910e+00,2.170741451106987518e-01,5.007770338312337449e-02,8.111889769421211371e-03,9.987123814533596100e-01,2.796902247171955196e+02
1.990647460167108251e+00,9.304524852698977000e+00,4.409238725591582697e-02,6.677027096849853793e-02,5.740444462838490552e-03,9.977518620439463914e-01,2.817132203772300159e+02
1.904194399444443464e+00,9.037517437282678756e+00,-1.029935487617714140e-01,8.343904601352179762e-02,3.368038783243325514e-03,9.965071911005498606e-01,2.837362160372645121e+02
1.839097147401238752e+00,8.728340155973770109e+00,-2.170521262522847605e-01,1.000698262311380399e-01,9.967015162768368304e-04,9.949799176185202265e-01,2.857592116972990084e+02
1.796278536613658883e+00,8.383599407211146826e+00,-2.980535271691527321e-01,1.166485428797343071e-01,-1.371546479450316434e-03,9.931723094731795820e-01,2.877822073573335047e+02
1.776887947133751311e+00,8.009671621230065597e+00,-3.493885988176380630e-01,1.098271497593942408e-01,-1.291355684720788422e-03,9.939498627074824233e-01,2.898052030173680009e+02
1.782318918723251988e+00,7.612730705846543877e+00,-3.742250886122212017e-01,1.029957319596170179e-01,-1.211047030180106062e-03,9.946810607240863522e-01,2.918281986774024972e+02
1.814217940091907177e+00,7.198786305111552153e+00,-3.755314665036680877e-01,9.615524245424800220e-02,-1.130631718756895145e-03,9.953657071752478602e-01,2.938511943374369935e+02
1.874495563664260844e+00,6.773720893534443732e+00,-3.560992487839493292e-01,8.930663983995952571e-02,-1.050121019485521483e-03,9.960036251572281785e-01,2.958741899974714897e+02
1.965339920188857947e+00,6.343325928053692664e+00,-3.185639911483481579e-01,8.245088766945378456e-02,-9.695262596674011479e-04,9.965946573915349660e-01,2.978971856575059860e+02
2.089232728139602813e+00,5.913337273009242168e+00,-2.654251088845995810e-01,7.558895377705890373e-02,-8.888588169428746424e-04,9.971386663834139741e-01,2.999201813175404823e+02
2.248967914157917747e+00,5.489470107673429133e+00,-1.990646732422980680e-01,6.872180959781336307e-02,-8.081301112865284979e-04,9.976355345572475164e-01,3.019431769775749785e+02
2.447672982921679896e+00,5.077453521383455737e+00,-1.217653253421436543e-01,6.185042948115303946e-02,-7.273515969390597019e-04,9.980851643685779706e-01,3.039661726376094748e+02
2.688833297983288961e+00,4.683064997941007057e+00,-3.572744234339342989e-02,5.497579000032969815e-02,-6.465347542889537122e-04,9.984874783925189456e-01,3.059891682976439711e+02
2.859416994987408867e+00,4.459809989106093830e+00,1.976338403509998731e-02,4.809886925870197200e-02,-5.656910817173913192e-04,9.988424193883810309e-01,3.071958952500021383e+02
2.948205317823751948e+00,4.362965431798387250e+00,4.638348640346869750e-02,4.122064619404806896e-02,-4.848320874198914577e-04,9.991499503403841187e-01,3.077404770607350315e+02
3.317151012794068876e+00,4.021389022309201700e+00,1.512881453482083915e-01,3.434209988205455533e-02,-4.039692812182634732e-04,9.994100544743939052e-01,3.097634727207695278e+02
3.715744689874444617e+00,3.707366031703580589e+00,2.633228716206785225e-01,2.746420884013673833e-02,-3.231141663764518918e-04,9.996227352506648067e-01,3.117864683808040240e+02
4.131631743725693084e+00,3.422144613826317183e+00,3.835106055791809854e-01,2.058795033274494687e-02,-2.422782314338413974e-04,9.997880163326399172e-01,3.138094640408385203e+02
4.552604471640026240e+00,3.167270424338993529e+00,5.129356006683207791e-01,1.371429967930474364e-02,-1.614729420695211763e-04,9.999059415318999333e-01,3.158324597008730166e+02
4.966511656541899633e+00,2.944595849798079978e+00,6.527515773411949329e-01,6.844229565931205829e-03,-8.070973301091091028e-05,9.999765747294222518e-01,3.178554553609075128e+02
5.359782587587496039e+00,2.755090528372404091e+00,8.064846964081311409e-01,-2.129063795536638798e-05,0.000000000000000000e+00,9.999999997733544088e-01,3.198784510209420091e+02
5.715923866092762040e+00,2.597663350646115976e+00,9.823543738647954049e-01,1.865110324378298559e-02,-9.040365837022099060e-03,9.997851809930583533e-01,3.219014466809765054e+02
6.016758021169332338e+00,2.470383356981159295e+00,1.191040796399885915e+00,3.803364354398834635e-02,-1.842454917110939588e-02,9.991065898824861291e-01,3.239244423410110016e+02
6.209900001134372793e+00,2.386736029648528490e+00,1.401292938194535598e+00,5.813904619849618455e-02,-2.815870596445121249e-02,9.979112879337205255e-01,3.256406733568210257e+02
6.356197065860816231e+00,2.318086783769651937e+00,1.685718433267171967e+00,7.897656677938851011e-02,-3.824731678056959155e-02,9.961424821072673019e-01,3.276636690168555219e+02
6.430840456555698026e+00,2.282516684099586524e+00,1.999511976338422592e+00,1.005512586536251030e-01,-4.869282761780088786e-02,9.937396303467800340e-01,3.296866646768900182e+02
6.449709280299848579e+00,2.281560530024941968e+00,2.333239926271386544e+00,1.228631631780955358e-01,-5.949525783892069264e-02,9.906386613839341937e-01,3.316949476519966993e+02
6.424293680404876916e+00,2.314923127164653316e+00,2.685724171872015731e+00,1.459064419311890959e-01,-7.065178003877194135e-02,9.867723324963735276e-01,3.337179433120311955e+02
6.363152880436864223e+00,2.381527470316719519e+00,3.048942983137498342e+00,1.696684669661967515e-01,-8.215627958954620225e-02,9.820707495090895689e-01,3.357409389720656918e+02
6.326659385845261774e+00,2.418815653436104274e+00,3.198252718372140091e+00,1.941288921301869141e-01,-9.399890502069864484e-02,9.764620725328843065e-01,3.365596919327109049e+02
6.210533416287225883e+00,2.535399203207857166e+00,3.568363248322133696e+00,2.192587364364084468e-01,-1.061656242367893938e-01,9.698734281991245876e-01,3.385826875927454012e+02
6.071119014732126118e+00,2.681780311458826560e+00,3.934329500902010501e+00,2.450195189380898753e-01,-1.186378056723697283e-01,9.622320439502064504e-01,3.406056832527798974e+02
5.913374476777122801e+00,2.856745146201517205e+00,4.290974966394546009e+00,2.713624929335289315e-01,-1.313918475411615383e-01,9.534666118058988671e-01,3.426286789128143937e+02
5.790940770646596292e+00,3.000075354549144979e+00,4.537033142278493081e+00,2.982280347993857550e-01,-1.443988819518707278e-01,9.435088776215865281e-01,3.440737374484228326e+02
5.608409882908270916e+00,3.223928195149575515e+00,4.867836281617402783e+00,3.255452482303531347e-01,-1.576245833166122767e-01,9.322954371275782304e-01,3.460967331084573289e+02
5.416284357213315914e+00,3.469135230455538288e+00,5.183640976931544131e+00,3.532318469126833893e-01,-1.710291115667605111e-01,9.197697023295229313e-01,3.481197287684918251e+02
5.215893861807049170e+00,3.732093674960979879e+00,5.483132434377686160e+00,3.811943763737975499e-01,-1.845672195844104135e-01,9.058839820174942048e-01,3.501427244285263214e+02
5.008468149852641105e+00,4.009305724097635526e+00,5.764873179398857239e+00,4.093288277560458432e-01,-1.981885503870002840e-01,8.906015996299134763e-01,3.521657200885608177e+02
4.795147447374982441e+00,4.297356471220695973e+00,6.027292246463550995e+00,4.375216817542806891e-01,-2.118381425781028782e-01,8.738989525934708347e-01,3.541887157485953139e+02
4.576991930455925228e+00,4.592892279965844260e+00,6.268673364912746848e+00,4.656513997647209191e-01,-2.254571523168930336e-01,8.557674020236534229e-01,3.562117114086298102e+02
4.354990368283385038e+00,4.892599477970150268e+00,6.487142052068242570e+00,4.935903521244844883e-01,-2.389837869050885910e-01,8.362148730357112925e-01,3.582347070686643065e+02
4.130068000894266511e+00,5.193183239411545138e+00,6.680651516538824275e+00,5.212071419110949622e-01,-2.523544298827638532e-01,8.152670463960952629e-01,3.602577027286988027e+02
3.903093713227776984e+00,5.491346524482530356e+00,6.846967265712812889e+00,5.483692498656984604e-01,-2.655049215930938011e-01,7.929680336631335091e-01,3.622806983887332990e+02
3.674886560356972254e+00,5.783768943772311211e+00,6.983650301680677686e+00,5.749458951358160652e-01,-2.783719442314136483e-01,7.693804509677238945e-01,3.643036940487677953e+02
3.446221692432483330e+00,6.067085414581510072e+00,7.088038779215972696e+00,6.008109815783755359e-01,-2.908944483121500002e-01,7.445848402673794775e-01,3.663266897088022915e+02
3.217835721896452839e+00,6.337864474426747385e+00,7.157227987876524367e+00,6.258459839278419645e-01,-3.030150500142033132e-01,7.186784286913592279e-01,3.683496853688367878e+02
2.990431569852060711e+00,6.592586114395263763e+00,7.188048507685323329e+00,6.499426248910692427e-01,-3.146813272956148766e-01,6.917732624214214532e-01,3.703726810288712841e+02
2.764682823052753147e+00,6.827618991560911788e+00,7.177042374115922385e+00,6.730052043543315321e-01,-3.258469475703421603e-01,6.639937964100832701e-01,3.723956766889057803e+02
2.541237627754874051e+00,7.039196875350088867e+00,7.120437073136876016e+00,6.949524647335614258e-01,-3.364725708012011318e-01,6.354740599420078961e-01,3.744186723489402766e+02
2.320722141609310896e+00,7.223394177516199832e+00,7.014117170749885943e+00,7.157189096254739091e-01,-3.465264879018234434e-01,6.063545461089165922e-01,3.764416680089747729e+02
2.305873740696103624e+00,7.234904232547622271e+00,7.004598363618238288e+00,7.352555324713031526e-01,-3.559849734909863450e-01,5.767789876711549857e-01,3.765794296350759396e+02
2.294646014596779526e+00,7.243632288458825563e+00,6.996699023812128715e+00,7.535299533178232423e-01,-3.648323520736687642e-01,5.468911814367040103e-01,3.766843646961521586e+02
2.082080172758829839e+00,7.395939470778821523e+00,6.808930903190696604e+00,7.705260003692391280e-01,-3.730607954158089434e-01,5.168320091467895061e-01,3.787073603561866548e+02
1.878118693646565696e+00,7.517267886020434275e+00,6.553938343496932717e+00,7.862428050341957464e-01,-3.806698843776659680e-01,4.867367775911887184e-01,3.807303560162211511e+02
1.688889094635273702e+00,7.608923327814735238e+00,6.226074097346089076e+00,8.006935020135137471e-01,-3.876659795291491628e-01,4.567329680995676489e-01,3.827533516762556474e+02
1.519854727668475070e+00,7.671910604592196314e+00,5.833788479896023560e+00,8.139036385608718893e-01,-3.940614509640087415e-01,4.269384498982418674e-01,3.847763473362901436e+02
1.512171990776974617e+00,7.674331205590006810e+00,5.812568493740872810e+00,8.259093997086585093e-01,-3.998738190172816398e-01,3.974601770459746941e-01,3.848774385319177327e+02
1.371681502583848467e+00,7.706760614241550122e+00,5.364226283190932421e+00,8.367557504268660074e-01,-4.051248547701681857e-01,3.683933579409682246e-01,3.869004341919522290e+02
1.248600127100242929e+00,7.706782342707667155e+00,4.883122873313965329e+00,8.464945835075159408e-01,-4.098396833314696397e-01,3.398210618240100067e-01,3.889234298519867252e+02
1.178116228693660839e+00,7.685875411579276673e+00,4.544856090099626655e+00,8.551829458263927597e-01,-4.140459250698966254e-01,3.118142092668430010e-01,3.902837160432431460e+02
1.093988034164586232e+00,7.622976115233791816e+00,4.028194320223835945e+00,8.628813977952229930e-01,-4.177729013347544207e-01,2.844318833206007091e-01,3.923067117032776423e+02
1.033331286156060180e+00,7.524809284739380821e+00,3.506634466251831395e+00,8.696525431742111456e-01,-4.210509226603798560e-01,2.577218940592158614e-01,3.943297073633121386e+02
1.001540175725281756e+00,7.390842513118230706e+00,2.989440807526206889e+00,8.755597503561778350e-01,-4.239106696748038416e-01,2.317215304888324834e-01,3.963527030233466348e+02
1.006534184949572808e+00,7.221808967730549256e+00,2.486193851362247020e+00,8.806660726229819103e-01,-4.263826703435175114e-01,2.064584388237596102e-01,3.983756986833811311e+02
1.052533001027117887e+00,7.018739844871740630e+00,2.007077031454562288e+00,8.850333641065295520e-01,-4.284968719657130665e-01,1.819515735954998770e-01,4.003986943434156274e+02
1.138234803451287025e+00,6.782145601563221327e+00,1.562197356783434632e+00,8.887215802845462864e-01,-4.302823025145880997e-01,1.582121767731025919e-01,4.024216900034501236e+02
1.260840341944238885e+00,6.513880337682417476e+00,1.162277301185295597e+00,8.917882465726599817e-01,-4.317668133625566784e-01,1.352447490795990193e-01,4.044446856634846199e+02
1.417868379145308166e+00,6.218937483497857244e+00,8.151892964404782171e-01,8.942880755556548156e-01,-4.329768939707769881e-01,1.130479862995437540e-01,4.064676813235191162e+02
1.607163473759705363e+00,5.903817927167835933e+00,5.206380362337662548e-01,8.962727121846028044e-01,-4.339375485336787741e-01,9.161566113846104920e-02,4.084906769835536124e+02
1.826883792518841254e+00,5.574908046066343381e+00,2.740759898436141984e-01,8.977905864051844986e-01,-4.346722246363473596e-01,7.093743787256295841e-02,4.105136726435881087e+02
2.075486023835622085e+00,5.238518849683731382e+00,7.131652011686800963e-02,5.550873353111309694e-01,-6.300483305254633848e-01,5.430627508670287096e-01,4.125366683036226050e+02
2.351712978180120484e+00,4.900924749597259655e+00,-9.149760134974611880e-02,2.272585225143718916e-03,-5.869387520140129100e-01,8.096281472013108216e-01,4.145596639636571012e+02
2.535908114484152875e+00,4.698021554166755820e+00,-1.682650552882988260e-01,-5.853361346762493422e-01,2.308247148017714546e-04,8.107906981226526977e-01,4.157894934106311666e+02
2.624051008236056415e+00,4.609774456141023435e+00,-1.933883095193358603e-01,-5.481508829330132837e-01,2.159181496039100996e-04,8.363794371689865503e-01,4.163318069855672547e+02
2.975871209712518617e+00,4.287824558796088148e+00,-2.544212747674074460e-01,-5.088794092340116482e-01,2.001833528645779884e-04,8.608377935385205237e-01,4.183548026456017510e+02
3.344801925733239312e+00,3.977834630725905374e+00,-2.795724638727657418e-01,-4.676665885084019814e-01,1.836789083630742923e-04,8.839049316838161197e-01,4.203777983056362473e+02
3.723347255190143645e+00,3.681704962291509453e+00,-2.673915492879799238e-01,-4.247061809980689495e-01,1.664828554746852817e-04,9.053312278417741110e-01,4.224007939656707435e+02
4.104105363969384968e+00,3.401492648067643731e+00,-2.161474545897973665e-01,-3.802382237339626547e-01,1.486916167004074868e-04,9.248885722628666928e-01,4.244237896257052398e+02
4.479713457772001028e+00,3.139424478147865738e+00,-1.238153362502032589e-01,-3.345434880444580483e-01,1.304177565608571161e-04,9.423803041226277433e-01,4.264467852857397361e+02
4.842793194878365348e+00,2.897911426210571850e+00,1.193864381089601925e-02,-2.879351888076219779e-01,1.117866486936482394e-04,9.576498914269578888e-01,4.284697809457742324e+02
5.185896137559192987e+00,2.679564827168450236e+00,1.937748694041006303e-01,-2.407484652161440419e-01,9.293226096622031040e-05,9.705875374533026179e-01,4.304927766058087286e+02
5.501448842166714925e+00,2.487214351838965332e+00,4.247002769702974412e-01,-1.933284365279598904e-01,7.399238090559082028e-05,9.811340938703446701e-01,4.325157722658432249e+02
5.781697186356313800e+00,2.323927901394006401e+00,7.080909686604075493e-01,-1.460178128894152882e-01,5.510367322297978870e-05,9.892819594446150555e-01,4.345387679258777212e+02
6.018649527389884568e+00,2.193033560498345302e+00,1.047717601653693098e+00,-9.914507572761101228e-02,3.639697384337557771e-05,9.950729885964277877e-01,4.365617635859122174e+02
6.078288428788307662e+00,2.159439469137882206e+00,1.173644178334090959e+00,-5.301413101832454927e-02,1.799317948526203977e-05,9.985937620417109084e-01,4.372048245207010382e+02
6.210708108044019404e+00,2.081291673640696782e+00,1.622296932306079631e+00,-7.896110403326194946e-03,0.000000000000000000e+00,9.999688252343162942e-01,4.392278201807355344e+02
6.287298185046521937e+00,2.043408376824817907e+00,2.110218062741533895e+00,-2.327330140198741182e-01,7.626829942020683095e-01,6.034484191214630755e-01,4.412508158407700307e+02
6.318208970094105759e+00,2.047869603777205061e+00,2.616000723611751066e+00,-3.624536949084198323e-01,5.550314817495823894e-01,7.487104736238815450e-01,4.432738115008045270e+02
6.317332286666982988e+00,2.053459719482582102e+00,2.709886653197844719e+00,-4.705556761714687064e-01,2.765339143835205959e-01,8.379178657950548947e-01,4.436479590533174360e+02
6.280286201719539108e+00,2.109359715443591465e+00,3.207075036529163814e+00,-5.294744752589631842e-01,-1.796754003837527100e-03,8.483239662559908245e-01,4.456709547133519322e+02
6.210301950462993048e+00,2.207653036181959738e+00,3.677441409593168231e+00,-7.159628516278365717e-01,-2.099958387042758813e-03,6.981352198992033520e-01,4.476939503733864285e+02
6.131187130583791500e+00,2.313614549488059335e+00,4.005459687100926480e+00,-9.607799910191243686e-01,-1.926593210438933305e-03,-2.773050614321576623e-01,4.492515748291581872e+02
6.030579621378238109e+00,2.448962849944106068e+00,4.294762982536191487e+00,-2.338457184193087346e-01,1.953655247318029822e-04,-9.722736969646298411e-01,4.508287461314384927e+02
5.884840104210553591e+00,2.658305048740425836e+00,4.610345745131906980e+00,3.990535107475306348e-03,7.430332966762309308e-04,-9.999917617316034235e-01,4.528517417914729890e+02
5.729512719338414328e+00,2.902013686185010766e+00,4.874757076427424174e+00,-1.741718878752641919e-02,0.000000000000000000e+00,-9.998483092623299262e-01,4.548747374515074853e+02
5.568503239138703265e+00,3.175860764897529442e+00,5.091963360556273521e+00,4.930538481194205076e-03,1.974095546449444738e-02,-9.997929708032731178e-01,4.568977331115419815e+02
5.403891380602838801e+00,3.475163706697277810e+00,5.265256058509109494e+00,-7.128532411219887233e-02,1.959212462411469291e-02,-9.972635314794840999e-01,4.589207287715764778e+02
5.237681766413595064e+00,3.795388653242376620e+00,5.397596387466567336e+00,-1.576381196705419485e-01,1.928357118685587041e-02,-9.873086483511714917e-01,4.609437244316109741e+02
5.071820663114640304e+00,4.132121346227522807e+00,5.491637590055533202e+00,-2.539131606011741371e-01,1.875866280516248416e-02,-9.670450969025614629e-01,4.629667200916454703e+02
4.908211975879814837e+00,4.481038646551665394e+00,5.549744887544554750e+00,-3.585880417369822215e-01,1.795720427729342178e-02,-9.333231782923745445e-01,4.649897157516799666e+02
4.748732628065289063e+00,4.837880511831670560e+00,5.574013267031582508e+00,-4.683751718587840229e-01,1.682871678865745582e-02,-8.833693976347051224e-01,4.670127114117144629e+02
4.595247447166962651e+00,5.198422253536401527e+00,5.566283236388697375e+00,-5.781649651837533765e-01,1.535203291279347432e-02,-8.157754520206610405e-01,4.690357070717489592e+02
4.449623673187414141e+00,5.558446895797851894e+00,5.528154665445655702e+00,-6.817224557878751590e-01,1.355387660874553951e-02,-7.314853284266358280e-01,4.710587027317834554e+02
4.313745200691431414e+00,5.913717457616812112e+00,5.460998817502204616e+00,-7.731233270296646864e-01,1.151402469873973738e-02,-6.341512031351976830e-01,4.730816983918179517e+02
4.189526661948162811e+00,6.259948978710200507e+00,5.365968661650450500e+00,-8.483059256498758360e-01,9.349287126618819124e-03,-5.294238824774826213e-01,4.751046940518524480e+02
4.078927455476716979e+00,6.592780106632191384e+00,5.244007543458967469e+00,-9.058886606085367887e-01,7.182881734097192224e-03,-4.234550044465942853e-01,4.771276897118869442e+02
3.983965821998128654e+00,6.907744059014496507e+00,5.095856279224466157e+00,-9.469162080237139012e-01,5.115998966715286020e-03,-3.214397634651992575e-01,4.791506853719214405e+02
3.908671850701573636e+00,7.192886410058967783e+00,4.926503852106604242e+00,-9.739238132307665996e-01,3.213928544985679859e-03,-2.268525439252346843e-01,4.811221034790081035e+02
3.851263827567822595e+00,7.458396396314978638e+00,4.727451712798301564e+00,-9.899465658803566770e-01,1.507086516398672450e-03,-1.414338198307628913e-01,4.831450991390425997e+02
3.827218950512771389e+00,7.615264408482437908e+00,4.579591748626575587e+00,-9.978459301533173509e-01,-0.000000000000000000e+00,-6.560106459853294603e-02,4.844847152076028465e+02
3.811901771753000379e+00,7.821376096814626422e+00,4.334321353723048276e+00,-9.978458252684040408e-01,-0.000000000000000000e+00,-6.560265996449830828e-02,4.865077108676373427e+02
3.815317495242569912e+00,7.961099908226238142e+00,4.121178217160360369e+00,-9.995754372699241497e-01,0.000000000000000000e+00,-2.913666430186999043e-02,4.881411892713710472e+02
3.836214304013140008e+00,8.100662587308022466e+00,3.842584371919763875e+00,-9.999721289650270739e-01,0.000000000000000000e+00,7.466009185052001514e-03,4.901641849314055435e+02
3.841644791156618943e+00,8.119896336403689574e+00,3.796180264967604856e+00,-9.990289449586489123e-01,0.000000000000000000e+00,4.405867831436725141e-02,4.904899588839074909e+02
3.884973074063777343e+00,8.218843764020055787e+00,3.501156511828225071e+00,-9.967550301912023736e-01,0.000000000000000000e+00,8.049478112608049463e-02,4.925129545439419871e+02
3.932459691249811762e+00,8.281579909223141911e+00,3.200853861407143341e+00,-9.999998362969713117e-01,0.000000000000000000e+00,5.721940497638961735e-04,4.945359502039764834e+02
3.947090720745610959e+00,8.293385851615918014e+00,3.099768813002936607e+00,-9.967625020920197754e-01,0.000000000000000000e+00,-8.040220409451583061e-02,4.952117409867520905e+02
3.980147749366730547e+00,8.299930055251586225e+00,2.797105261343429294e+00,-9.869790961483118075e-01,0.000000000000000000e+00,-1.608485740261992314e-01,4.972347366467865868e+02
3.996754482461023272e+00,8.266956776106859195e+00,2.497203324188496776e+00,-9.709659460304902456e-01,-0.000000000000000000e+00,-2.392177494441311558e-01,4.992577323068210831e+02
3.995856181133082163e+00,8.196303215676211451e+00,2.203545713705149733e+00,-4.786746219082346765e-01,-2.325610674843665016e-01,8.466321256788810201e-01,5.012807279668555793e+02
3.979606260961886743e+00,8.091328520508639599e+00,1.919236225537783724e+00,-7.429801348033079345e-01,3.271526319542012590e-02,6.685134485122291581e-01,5.033037236268900756e+02
3.967561022270559512e+00,8.038273504777707856e+00,1.807962076748162783e+00,-8.907509635587320673e-01,3.546092203075940086e-01,2.842798300830196578e-01,5.041288465004118393e+02
3.926217514513491658e+00,7.885424122879435060e+00,1.548932616530420692e+00,-8.351919860094663139e-01,5.440521584196161831e-01,-8.038404956532353707e-02,5.061518421604463356e+02
3.874478312514099354e+00,7.706095284151500024e+00,1.306763662573269480e+00,-6.676841824117518698e-01,3.811871281185450488e-01,6.394483606311663904e-01,5.081748378204808319e+02
3.815802513433175669e+00,7.502679487219874765e+00,1.084570347945637003e+00,-1.177652196089313680e-01,0.000000000000000000e+00,9.930414659270077049e-01,5.101978334805153281e+02
3.755465609246921410e+00,7.277542346106602444e+00,8.847295079500824277e-01,1.270775055453924251e-03,1.158169168312461056e-01,9.932697654245107310e-01,5.122208291405498812e+02
3.697848806636433228e+00,7.034408715725641414e+00,7.080751328192300686e-01,1.204856831079107685e-03,1.097581285290359365e-01,9.939575954445040162e-01,5.142438248005844343e+02
3.646174727601632082e+00,6.777827580622534320e+00,5.547711272931670212e-01,1.138851936115950567e-03,1.036914106651650874e-01,9.946088650170656909e-01,5.162668204606189875e+02
3.603757799734742306e+00,6.512230860639564689e+00,4.251569980169772056e-01,1.072767629489795871e-03,9.761743049596660615e-02,9.952234354319526854e-01,5.182898161206535406e+02
3.574028588833178421e+00,6.241961533288870712e+00,3.197504067435230080e-01,1.006611208992817764e-03,9.153685883795238676e-02,9.958011800595311103e-01,5.203128117806880937e+02
3.560559306489631926e+00,5.971300952875268742e+00,2.392510633151148369e-01,9.403900072857361830e-04,8.545036970025608747e-02,9.963419844534925351e-01,5.223358074407226468e+02
3.567090680668323355e+00,5.704495534170018090e+00,1.845459877014596350e-01,8.741113878572529406e-04,7.935863991320171729e-02,9.968457464424516079e-01,5.243588031007571999e+02
3.596273270773084452e+00,5.456427154002557067e+00,1.578456645991407059e-01,8.077827409463744042e-04,7.326234875347226172e-02,9.973123762102664713e-01,5.262978902365736076e+02
3.654706039634318948e+00,5.209825482720304990e+00,1.580998134095851215e-01,7.414114794328699031e-04,6.716217756636086444e-02,9.977417963649527488e-01,5.283208858966081607e+02
3.745482654274702838e+00,4.979754938521954166e+00,1.879615963087969965e-01,6.750050347011810623e-04,6.105880938559370141e-02,9.981339419960714165e-01,5.303438815566427138e+02
3.868810423457934800e+00,4.769168557601981995e+00,2.486649738105938257e-01,6.085708524831591601e-04,5.495292855121797215e-02,9.984887607205011895e-01,5.323668772166772669e+02
4.016158132794597435e+00,4.578331980362946751e+00,3.407098142071177116e-01,5.421163886850523901e-04,4.884522032605432412e-02,9.988062127165211468e-01,5.343898728767118200e+02
4.174670491187500332e+00,4.406315636999371677e+00,4.643486679641343207e-01,4.756491052041996533e-04,4.273637051121436520e-02,9.990862707461537484e-01,5.364128685367463731e+02
4.331569400636926304e+00,4.252426775666402925e+00,6.200716822086267399e-01,4.091764657409048545e-04,3.662706506118697247e-02,9.993289201657398202e-01,5.384358641967809262e+02
4.474058472875614534e+00,4.116204662445118956e+00,8.086102867809340511e-01,3.427059316109738090e-04,3.051798969899698413e-02,9.995341589247345171e-01,5.404588598568154794e+02
4.589227368663340023e+00,3.997418147019206280e+00,1.030942694804708903e+00,2.762449575643942932e-04,2.440982953193991667e-02,9.997019975527432489e-01,5.424818555168500325e+02
4.628464177850371009e+00,3.944271305242032177e+00,1.162276884695872425e+00,2.098009876156146458e-04,1.830326866839419170e-02,9.998324591348283219e-01,5.435177655924411511e+02
4.656329275602084650e+00,3.855737865612141491e+00,1.448335599519465777e+00,1.433814508908516617e-04,1.219898983620971121e-02,9.999255792751456928e-01,5.455407612524757042e+02
4.630225328900541726e+00,3.785358607715536561e+00,1.753108630364468290e+00,7.699375749780899857e-05,6.097674003167517440e-03,9.999814060489887746e-01,5.475637569125102573e+02
4.555610490058071171e+00,3.731092284293149319e+00,2.067366133462190003e+00,1.064529442313578632e-05,0.000000000000000000e+00,9.999999999433388798e-01,5.495867525725448104e+02
4.440579427685739766e+00,3.685896267692561068e+00,2.385898822803063091e+00,1.064529442313578632e-05,0.000000000000000000e+00,9.999999999433388798e-01,5.516097482325793635e+02
4.315785162962678889e+00,3.648317675289695750e+00,2.650458897550111104e+00,1.014875153428117759e-02,-0.000000000000000000e+00,9.999485000950276703e-01,5.532928330062367195e+02
4.135721061975584867e+00,3.600700854317668398e+00,2.963606673171252481e+00,1.071253871065596351e-02,0.000000000000000000e+00,9.999426191109032080e-01,5.553158286662712726e+02
3.930445355795001205e+00,3.560561300586995159e+00,3.268402354501958484e+00,1.141726278843132637e-02,0.000000000000000000e+00,9.999348209310543467e-01,5.573388243263058257e+02
3.705562267732313231e+00,3.542417234280156535e+00,3.562654134633448155e+00,1.232331886462428513e-02,0.000000000000000000e+00,9.999240650230201144e-01,5.593618199863403788e+02
3.569300554697483197e+00,3.547879885310841086e+00,3.725260140592790759e+00,1.353135899198954807e-02,0.000000000000000000e+00,9.999084469709362821e-01,5.605212975561618123e+02
3.327084935070845351e+00,3.591878250510359472e+00,4.000371116115533532e+00,1.522253933192527220e-02,0.000000000000000000e+00,9.998841304352659165e-01,5.625442932161963654e+02
3.090236382041332774e+00,3.680814535820696065e+00,4.269924730783153599e+00,1.775911480273907259e-02,0.000000000000000000e+00,9.998422944851969030e-01,5.645672888762309185e+02
2.868120644990976409e+00,3.819252798621738609e+00,4.537125475217067105e+00,2.198609964823750387e-02,0.000000000000000000e+00,9.997582764960027957e-01,5.665902845362654716e+02
2.777776758887411823e+00,3.900123293396648982e+00,4.656740651769433192e+00,3.043685099507715403e-02,0.000000000000000000e+00,9.995366917234721482e-01,5.674981212346903021e+02
2.599120604592204842e+00,4.119696884055657371e+00,4.921406477242166844e+00,5.574712174841689460e-02,0.000000000000000000e+00,9.984449200715916906e-01,5.695211168947248552e+02
2.442823065291465756e+00,4.382438020493838238e+00,5.180919612154854192e+00,9.999871256868345659e-01,0.000000000000000000e+00,-5.074294097008325011e-03,5.715441125547594083e+02
2.308035216500645692e+00,4.682273330299326020e+00,5.431613047254224114e+00,4.561128210929608212e-02,0.000000000000000000e+00,-9.989592639063648027e-01,5.735671082147939615e+02
2.194011626745256294e+00,5.013379567424887995e+00,5.669753446289765186e+00,2.029123414799349073e-02,0.000000000000000000e+00,-9.997941117133825051e-01,5.755901038748285146e+02
2.100107019308033784e+00,5.370144552351967526e+00,5.891513070167332167e+00,1.183866910021953191e-02,0.000000000000000000e+00,-9.999299205013997272e-01,5.776130995348630677e+02
2.025773306648778860e+00,5.747129523233607706e+00,6.092940991165257003e+00,7.611049229558567407e-03,0.000000000000000000e+00,-9.999710355453428345e-01,5.796360951948976208e+02
1.970556988008197008e+00,6.139032648051864882e+00,6.269933380735051465e+00,5.074179792448234479e-03,0.000000000000000000e+00,-9.999871262668504901e-01,5.816590908549321739e+02
1.934096900957726906e+00,6.540653455517031922e+00,6.418202647442108777e+00,3.382839756408787067e-03,0.000000000000000000e+00,-9.999942781812215520e-01,5.836820865149667270e+02
1.916122317907094308e+00,6.946857948536002247e+00,6.533245192953970992e+00,2.174703333686330356e-03,0.000000000000000000e+00,-9.999976353299093734e-01,5.857050821750012801e+02
1.916451378817737528e+00,7.352544168628017296e+00,6.610307543591624757e+00,1.268584756635966022e-03,0.000000000000000000e+00,-9.999991953460338756e-01,5.877280778350358332e+02
1.934989851580145137e+00,7.752607982700815192e+00,6.644350602756690982e+00,5.638178278112868438e-04,0.000000000000000000e+00,-9.999998410547159544e-01,5.897510734950703863e+02
1.971730211678845546e+00,8.141908865132085893e+00,6.630011755397825723e+00,0.000000000000000000e+00,-0.000000000000000000e+00,-1.000000000000000000e+00,5.917740691551049395e+02
2.026751032876199066e+00,8.515235448139128138e+00,6.561564539505738480e+00,-0.000000000000000000e+00,-0.000000000000000000e+00,-1.000000000000000000e+00,5.937970648151394926e+02
2.100055695621727558e+00,8.867380073809313146e+00,6.437109951226822169e+00,0.000000000000000000e+00,-7.207456382002596328e-04,-9.999997402628287846e-01,5.958200604751740457e+02
2.190960877092257064e+00,9.194114196423727847e+00,6.262943935196506828e+00,0.000000000000000000e+00,-1.441494269515879428e-03,-9.999989610465958023e-01,5.978430561352085988e+02
2.297814573150923856e+00,9.492957523707758583e+00,6.049517763658278646e+00,0.000000000000000000e+00,-2.162244770717621899e-03,-9.999976623460433700e-01,5.998660517952431519e+02
2.418612817489332212e+00,9.762161454796894233e+00,5.807134861799362113e+00,0.000000000000000000e+00,-2.882996018555265480e-03,-9.999958441583429725e-01,6.018890474552777050e+02
2.551439529403393802e+00,9.999800523550952391e+00,5.545880891111175437e+00,0.000000000000000000e+00,-3.603746889766353597e-03,-9.999935064830943743e-01,6.039120431153122581e+02
2.598926943501664866e+00,1.007079235076182400e+01,5.455614237962550739e+00,0.000000000000000000e+00,-4.324496261084950256e-03,-9.999906493223262860e-01,6.045849039213233027e+02
2.750349757885415691e+00,1.025836545611116613e+01,5.180885563061806920e+00,0.000000000000000000e+00,-5.045243009250390855e-03,-9.999872726804964751e-01,6.066078995813578558e+02
2.909363348800652727e+00,1.040874909429192563e+01,4.910807672024336767e+00,0.000000000000000000e+00,-5.765986011016037763e-03,-9.999833765644910999e-01,6.086308952413924089e+02
3.074060283617349398e+00,1.051791610095624740e+01,4.653499625508931814e+00,0.000000000000000000e+00,-6.486724143158028970e-03,-9.999789609836252646e-01,6.106538909014269620e+02
3.242124185702819794e+00,1.057882987145825737e+01,4.413659912350844650e+00,0.000000000000000000e+00,-7.207456282484031931e-03,-9.999740259496423533e-01,6.126768865614615152e+02
3.248427676598462099e+00,1.058011024562777003e+01,4.405116469160096138e+00,-0.000000000000000000e+00,-7.928181305841998719e-03,-9.999685714767146960e-01,6.127522628901008375e+02
3.416543762611002233e+00,1.058433001562955589e+01,4.187229433245532206e+00,-0.000000000000000000e+00,-4.806577624515451230e-02,-9.988441726084960059e-01,6.147752585501353906e+02
3.501797356469403599e+00,1.055900532955955029e+01,4.084259831065695678e+00,-4.199773332410635662e-01,-5.494551011810224761e-01,-7.223005824100358074e-01,6.158305287485731014e+02
3.542417245693805228e+00,1.053743140542264989e+01,4.037616465726645565e+00,-8.013779620807470749e-01,-2.209846538558350171e-01,-5.558409346670373230e-01,6.163598866120064486e+02
3.685496086795990944e+00,1.041268096989545278e+01,3.877648539241290937e+00,-8.364154875335000350e-01,-1.324171320613922072e-02,-5.479359353477957217e-01,6.183828822720410017e+02
3.771409639091018562e+00,1.028907289452230778e+01,3.780660878027122251e+00,-5.321574785110473327e-01,-2.143043270765455366e-01,8.190739120867134293e-01,6.197618929732502693e+02
3.877495216305502979e+00,1.005540026557025080e+01,3.655337838192856736e+00,-5.810840326211857976e-01,-2.249219394271168293e-01,7.821454265013924045e-01,6.217848886332848224e+02
3.962023356277937669e+00,9.770925983441795637e+00,3.546593382547394757e+00,-6.409740476093459538e-01,-2.373521352438271725e-01,7.299426239003227179e-01,6.238078842933193755e+02
4.024180884051864027e+00,9.442131072512268020e+00,3.454106310098123522e+00,-7.137349290353818265e-01,-2.514187381572718372e-01,6.537362382324110044e-01,6.258308799533539286e+02
4.064520941663376519e+00,9.075147603129799734e+00,3.379027080614076084e+00,-7.988116453147885432e-01,-2.658444253289870551e-01,5.396542382220129719e-01,6.278538756133884817e+02
4.084227534265289172e+00,8.675818783556875857e+00,3.323311766125234712e+00,-8.873988897237751194e-01,-2.766479606350904508e-01,3.687670218355439955e-01,6.298768712734230348e+02
4.084385667303221723e+00,8.249765820044068221e+00,3.289062061162522532e+00,-9.529162725340658557e-01,-2.753065571721903249e-01,1.271097050495261227e-01,6.318998669334575879e+02
4.065987568619526371e+00,7.802425600224095703e+00,3.278541088141968540e+00,-9.534827352230846875e-01,-2.517521442552942967e-01,-1.658057040465328036e-01,6.339228625934921411e+02
4.030140635724959175e+00,7.338885644465676705e+00,3.292696479262912757e+00,-8.717116086627086924e-01,-2.064577839049681895e-01,-4.444030319290385722e-01,6.359458582535266942e+02
4.024418104311267008e+00,7.284944862314365999e+00,3.296395707672584940e+00,-7.423368294268947176e-01,-1.536581655327995399e-01,-6.521696097193737662e-01,6.361775881868935585e+02
3.961243469684863516e+00,6.809251937737764493e+00,3.345026268058175045e+00,-6.106308601098654476e-01,-1.062967370311780069e-01,-7.847489766657937960e-01,6.382005838469281116e+02
3.883743321173531271e+00,6.327052108107538153e+00,3.412996616358951574e+00,-4.980194783258343749e-01,-6.852598614819584155e-02,-8.644540406698790758e-01,6.402235795069626647e+02
3.793328209389081884e+00,5.842562721040222229e+00,3.497362903657528221e+00,-4.076337541157232236e-01,-3.951628964531939819e-02,-9.122900774195614737e-01,6.422465751669972178e+02
3.691353081788898649e+00,5.359973872040582066e+00,3.595304583528836417e+00,-3.361549288251582945e-01,-1.726060597556983503e-02,-9.416485200476391038e-01,6.442695708270317709e+02
3.579127526283031102e+00,4.883476308323666082e+00,3.704103200647442584e+00,-2.793467611515190185e-01,3.937469914031367576e-05,-9.601902860807274287e-01,6.462925664870663240e+02
3.457526187260228756e+00,4.416881173691189488e+00,3.819757470426282442e+00,-2.249157276623132140e-01,1.652672383447790225e-03,-9.743768183429474261e-01,6.483155621471008772e+02
3.326646225625703224e+00,3.963241323039222941e+00,3.935652557176698707e+00,-1.692340342065887793e-01,3.276310991851350343e-03,-9.855704477369682248e-01,6.503385578071354303e+02
3.202472430529351488e+00,3.575129713561938427e+00,4.031734519158214347e+00,-1.128226883150038606e-01,4.894588099694456747e-03,-9.936030817226312317e-01,6.521298587480625883e+02
3.052730826279775656e+00,3.154960455651307782e+00,4.125424800642806034e+00,-5.622893019826314537e-02,6.491804981822963533e-03,-9.983967968081812749e-01,6.541528544080971415e+02
2.893136328372566624e+00,2.756226189978418617e+00,4.196526834612281931e+00,0.000000000000000000e+00,8.053019153493613455e-03,-9.999675739155312604e-01,6.561758500681316946e+02
2.723382183103861820e+00,2.382020366200617634e+00,4.236917792426130980e+00,-4.522926115448668294e-01,-6.824885462044352202e-01,-5.741435167636055326e-01,6.581988457281662477e+02
2.543116540747270005e+00,2.035600073140028332e+00,4.238243888674397830e+00,0.000000000000000000e+00,3.025577441558382347e-02,-9.995421892619207327e-01,6.602218413882008008e+02
2.353972115569265888e+00,1.720731591102157454e+00,4.190829451963818286e+00,-6.700825643701949219e-02,-0.000000000000000000e+00,-9.977524209789072618e-01,6.622448370482353539e+02
2.161373484447487670e+00,1.442048690141464196e+00,4.086617348588146292e+00,5.805322569842741309e-02,0.000000000000000000e+00,-9.983134893338903026e-01,6.642678327082699070e+02
2.122261394092709530e+00,1.389699713173380813e+00,4.054388491869907796e+00,1.065309812990342326e-03,4.290253040927120565e-01,-9.032918429628147283e-01,6.646841651268747455e+02
1.938954669949949583e+00,1.163007927137583497e+00,3.846828053058468200e+00,1.071606083743678953e-02,4.912288834840384810e-01,-8.709646089659174306e-01,6.667071607869092986e+02
1.767723165681882369e+00,9.845718616314106386e-01,3.583523389600069553e+00,2.859094939678502936e-02,6.007711874764847249e-01,-7.989095930771422660e-01,6.687301564469438517e+02
