3.870784828976777892e+00,9.898425114055904306e-01,3.278305677893732728e+00,5.305824450534845881e-06,9.474388101549157115e-01,-3.199370265913057954e-01,1.034339363085861407e+02
3.917090834561962609e+00,9.247431530878823525e-01,3.145269965389393185e+00,7.030036778175399171e-06,9.772798963882122214e-01,-2.119528345317037432e-01,1.045461757108563177e+02
3.952180737990696358e+00,8.749608869636243957e-01,3.007248624235014933e+00,8.627127527541949854e-06,9.945729257231649134e-01,-1.040417961399963814e-01,1.056584151131264946e+02
3.974261911988250073e+00,8.400144009730257100e-01,2.866623994169029466e+00,1.005388821744537281e-05,9.999999999494597613e-01,-0.000000000000000000e+00,1.067706545153966715e+02
3.981535490774592123e+00,8.187427033684708810e-01,2.726031955256244199e+00,7.847417297761961183e-06,9.874904968784197212e-01,1.576785290178400190e-01,1.078828939176668484e+02
3.972193235221328944e+00,8.084874261208810919e-01,2.588172701328141034e+00,5.305597359531535115e-06,9.474793801659123771e-01,3.198168603001866894e-01,1.089951333199370254e+02
3.966430050913034133e+00,8.067922286101040230e-01,2.547005056573804271e+00,2.615805760317356716e-06,8.810433214846643546e-01,4.730355860402342683e-01,1.093329998866969675e+02
3.937237074763379141e+00,8.020489284604195301e-01,2.415458167899668052e+00,-0.000000000000000000e+00,7.954343525492088007e-01,6.060397600691072029e-01,1.104452392889671444e+02
3.889635963154991494e+00,7.967040180602081856e-01,2.292242392336316659e+00,1.064529442313578632e-05,0.000000000000000000e+00,9.999999999433388798e-01,1.115574786912373213e+02
3.824203949007771719e+00,7.870030372288614462e-01,2.179241259224096616e+00,1.064529442313578632e-05,0.000000000000000000e+00,9.999999999433388798e-01,1.126697180935074982e+02
3.741500157800488502e+00,7.691851536488292229e-01,2.078341226866978975e+00,1.014875153428117759e-02,-0.000000000000000000e+00,9.999485000950276703e-01,1.137819574957776751e+02
3.642299703597864369e+00,7.408858037081833547e-01,1.991281981360731201e+00,9.311524530098863606e-01,0.000000000000000000e+00,3.646300992151790821e-01,1.148941968980478521e+02
3.594116662347651481e+00,7.255006099008287634e-01,1.956616525032113474e+00,9.108977629927051956e-01,0.000000000000000000e+00,4.126321186903482152e-01,1.153872741818726837e+02
3.477010774697435913e+00,6.856998977891600733e-01,1.888222999684032066e+00,8.866567942443965844e-01,0.000000000000000000e+00,4.624280800516440415e-01,1.164995135841428606e+02
3.346771425355250074e+00,6.384692878168410912e-01,1.836991611213094844e+00,8.580407267610685729e-01,0.000000000000000000e+00,5.135816500025456310e-01,1.176117529864130375e+02
3.204872421071708555e+00,5.856095609272885527e-01,1.804225554959367317e+00,8.247355135646419200e-01,0.000000000000000000e+00,5.655186404224589181e-01,1.187239923886832145e+02
3.173534151775224466e+00,5.738767481640437707e-01,1.799394728347159189e+00,7.865457484079321215e-01,0.000000000000000000e+00,6.175320118515363887e-01,1.189601455806592725e+02
3.021361646996129302e+00,5.195966782409311424e-01,1.787513228941706833e+00,7.434388512989993369e-01,0.000000000000000000e+00,6.688039132505314566e-01,1.200723849829294494e+02
2.861781287476468538e+00,4.697254859953450823e-01,1.796469467067823844e+00,6.955819336476412040e-01,0.000000000000000000e+00,7.184467785319998967e-01,1.211846243851996263e+02
2.697539273787615599e+00,4.272602103897276682e-01,1.825542656184503398e+00,6.433625668064187897e-01,0.000000000000000000e+00,7.655616288923160484e-01,1.222968637874698032e+02
2.531592118137124370e+00,3.934357332502218529e-01,1.873283395831059073e+00,5.873859122752184136e-01,0.000000000000000000e+00,8.093069813492339559e-01,1.234091031897399802e+02
2.366900729936675329e+00,3.694664533980847043e-01,1.938247638308130405e+00,5.284446965513468486e-01,0.000000000000000000e+00,8.489677277062744887e-01,1.245213425920101571e+02
2.206430930003913549e+00,3.565467410756304467e-01,2.018996274597264051e+00,4.674645194988076291e-01,0.000000000000000000e+00,8.840118342023193243e-01,1.256335819942803340e+02
2.053153967466461172e+00,3.558513801617915195e-01,2.114094721697821200e+00,4.054329951211737004e-01,0.000000000000000000e+00,9.141247652629669318e-01,1.267458213965505109e+02
1.910047039425741167e+00,3.685359983807307005e-01,2.222112511283813152e+00,3.433249583519545345e-01,0.000000000000000000e+00,9.392166805229923421e-01,1.278580607988206879e+02
1.802522794374652015e+00,3.885306027115642546e-01,2.317627659165113485e+00,2.820360606821574190e-01,0.000000000000000000e+00,9.594038047010708947e-01,1.287604503624597783e+02
1.683275687771876195e+00,4.261538247211791308e-01,2.443771829093653203e+00,2.223337764832316599e-01,0.000000000000000000e+00,9.749706107543469891e-01,1.298726897647299552e+02
1.582602340553515896e+00,4.803097487141840261e-01,2.578826465490260844e+00,1.648297569957223041e-01,0.000000000000000000e+00,9.863220322028354303e-01,1.309849291670001321e+02
1.503507022403623328e+00,5.520838668617108480e-01,2.721372554315814707e+00,1.099725715549594585e-01,0.000000000000000000e+00,9.939346223497745880e-01,1.320971685692703090e+02
1.448085793344555006e+00,6.409946172290232891e-01,2.869569666872278102e+00,5.805654756294301166e-02,0.000000000000000000e+00,9.983132961576099973e-01,1.332094079715404860e+02
1.416602180803054667e+00,7.434532442317612899e-01,3.020731869305681716e+00,6.546032116165749482e-02,6.032882451815324565e-02,9.960298084322931622e-01,1.343216473738106629e+02
1.408426100244640322e+00,7.960002521027058631e-01,3.094029311625604350e+00,7.754812790381203358e-02,1.628786090045768187e-01,9.835938422882426480e-01,1.348588364994911046e+02
1.405546944180454227e+00,9.073467824992941244e-01,3.244078535370549243e+00,9.927613308084649868e-02,3.634797256111240160e-01,9.262973272498286059e-01,1.359710759017612816e+02
1.424687660175877779e+00,1.021272507582537736e+00,3.389049193439875207e+00,1.326324846596048657e-01,7.727565078083248329e-01,6.206899416398674596e-01,1.370833153040314585e+02
1.459420263806939788e+00,1.127223575964302338e+00,3.513729928658175794e+00,1.069694536499883331e-01,9.659455808570309721e-01,-2.355985373651456050e-01,1.380964783016603974e+02
1.514976541963328760e+00,1.245928047786085235e+00,3.639543919715719333e+00,5.099189423242176528e-02,7.269594033540341949e-01,-6.847845300514142641e-01,1.392087177039305743e+02
1.588024285545218017e+00,1.363462630458833091e+00,3.752943336872202273e+00,2.345660141316829525e-02,5.700751032497729520e-01,-8.212576724176793297e-01,1.403209571062007512e+02
1.676757530446649325e+00,1.475084302655771840e+00,3.854748025574406434e+00,9.362231275761148663e-03,4.826305777603568936e-01,-8.757739857042132758e-01,1.414331965084709282e+02
1.779060718208409497e+00,1.578641415397879166e+00,3.945378333949204563e+00,1.065309812990342326e-03,4.290253040927120565e-01,-9.032918429628147283e-01,1.425454359107411051e+02
1.882403474106242314e+00,1.666101851638509768e+00,4.019049512038618488e+00,5.805322569842741309e-02,0.000000000000000000e+00,-9.983134893338903026e-01,1.435640510378418071e+02
2.003611791835244738e+00,1.752867370436142602e+00,4.089406923198388277e+00,-4.486293491829057220e-03,0.000000000000000000e+00,-9.999899365347159064e-01,1.446762904401119840e+02
2.131767512422437783e+00,1.829501126775251452e+00,4.148923588093871295e+00,-6.700825643701949219e-02,-0.000000000000000000e+00,-9.977524209789072618e-01,1.457885298423821610e+02
2.264449612801089362e+00,1.895806536831145417e+00,4.198040499749073895e+00,-8.517728843392712024e-02,-3.017560410443348093e-02,-9.959087621122609812e-01,1.469007692446523379e+02
2.323886418363787509e+00,1.922446510699209243e+00,4.217139252563891993e+00,-1.038360479793809382e-01,-6.130996011817856778e-02,-9.927029585582644033e-01,1.473924677667936578e+02
2.458094421171531874e+00,1.977621361744450912e+00,4.255355842352892992e+00,-1.229261228338942580e-01,-9.331961625128963600e-02,-9.880185309738570565e-01,1.485047071690638347e+02
2.590142921374317009e+00,2.025216652635851489e+00,4.286044635621306220e+00,-1.423771743344663110e-01,-1.261005483849837461e-01,-9.817471120026477482e-01,1.496169465713340117e+02
2.717253474872210361e+00,2.066599166366215101e+00,4.310493143047954057e+00,-1.621071689162537077e-01,-1.595280801317662256e-01,-9.737926152089212417e-01,1.507291859736041886e+02
2.836651975147576721e+00,2.103155673306358331e+00,4.329987085947487380e+00,-1.820231424188198111e-01,-1.934576631780695888e-01,-9.640755718208290359e-01,1.518414253758743655e+02
2.945586723278158736e+00,2.136315937340998339e+00,4.345471861950557901e+00,-2.020225463118599241e-01,-2.277266264229277082e-01,-9.525373874025653276e-01,1.529536647781445424e+02
3.041346620165306547e+00,2.167575542369253316e+00,4.357213913098952673e+00,-2.219951839034113861e-01,-2.621569396063903046e-01,-9.391442260589700775e-01,1.540659041804147193e+02
3.121242332152310173e+00,2.198473692704742799e+00,4.365139705235615786e+00,-2.418256937066056156e-01,-2.965589553873782536e-01,-9.238902098425255671e-01,1.551781435826848963e+02
3.182587346489927249e+00,2.230571234222852528e+00,4.369174609909145524e+00,-2.613964817878899893e-01,-3.307360010415876794e-01,-9.067996343867438247e-01,1.562903829849550732e+02
3.222697518474456402e+00,2.265451265434616168e+00,4.369242882974524456e+00,-2.805909525193021059e-01,-3.644895988389681429e-01,-8.879279529908485902e-01,1.574026223872252501e+02
3.238890621427724881e+00,2.304719761162433933e+00,4.365267642874006704e+00,-2.992968460185937429e-01,-3.976250166109964734e-01,-8.673613688241060826e-01,1.585148617894954270e+02
3.238943631109606702e+00,2.305342661439581331e+00,4.365178137319307261e+00,-3.174094681928730788e-01,-4.299568003708026387e-01,-8.452149899974676917e-01,1.585314071857983436e+02
3.229371002626148179e+00,2.350295143453761781e+00,4.357134731311703035e+00,-3.348346006265469632e-01,-4.613139288573145924e-01,-8.216296302261069107e-01,1.596436465880685205e+02
3.193854550821766836e+00,2.401566122798954872e+00,4.345106216468808569e+00,-3.514909035582466368e-01,-4.915442591870641253e-01,-7.967674604149240780e-01,1.607558859903386974e+02
3.133035717275220566e+00,2.459454738832601350e+00,4.329225861723074331e+00,-3.673116724709727943e-01,-5.205179997972335659e-01,-7.708068157156265920e-01,1.618681253926088743e+02
3.047552030415903612e+00,2.524257628566431766e+00,4.309625831510056848e+00,-3.822458702283508813e-01,-5.481300413029661645e-01,-7.439365245197867571e-01,1.629803647948790513e+02
2.938592809914833293e+00,2.595993403575455716e+00,4.285990000401731059e+00,-3.962584229150444837e-01,-5.743010831780019920e-01,-7.163501435258147199e-01,1.640926041971492282e+02
2.935895012069394294e+00,2.597679146987811105e+00,4.285410207389202419e+00,-4.093298291378230092e-01,-5.989775986060174029e-01,-6.882404575046204842e-01,1.641175545056235876e+02
2.805781668861402345e+00,2.675806637376027641e+00,4.256505468597981512e+00,-4.214551818364508096e-01,-6.221307678768835947e-01,-6.597945417810937574e-01,1.652297939078937645e+02
2.657396599459091568e+00,2.759470868432624346e+00,4.220655672421971261e+00,-4.326427339818115780e-01,-6.437545732308117552e-01,-6.311896023994366667e-01,1.663420333101639415e+02
2.493577158330271271e+00,2.847816319426073051e+00,4.176198364314216427e+00,-4.429121536468873521e-01,-6.638632814510702085e-01,-6.025897175466016220e-01,1.674542727124341184e+02
2.317154258423914204e+00,2.939966391838161108e+00,4.121468621580907765e+00,-4.522926115448668294e-01,-6.824885462044352202e-01,-5.741435167636055326e-01,1.685665121147042953e+02
2.130952855648323929e+00,3.035023103940935663e+00,4.054798575979901898e+00,-2.793467611515190185e-01,3.937469914031367576e-05,-9.601902860807274287e-01,1.696787515169744722e+02
1.937792430961742918e+00,3.132066772870291338e+00,3.974516935481787971e+00,-8.245850752814774809e-02,-2.234828578041056779e-01,-9.712136772121469086e-01,1.707909909192446491e+02
1.740195638041525328e+00,3.230148225137385420e+00,3.879858427444193403e+00,1.217560744469132483e-01,-4.271489298791252276e-01,-8.959460084393455759e-01,1.719032303215148261e+02
1.540096856382591639e+00,3.328284145590886478e+00,3.771873501565333964e+00,2.673846688186425347e-01,-5.155717677327804616e-01,-8.140584691517193106e-01,1.730154697237850030e+02
1.339134287413937363e+00,3.425468904630916800e+00,3.652518708687210847e+00,4.034591077821900740e-01,-5.855722676019796680e-01,-7.030831158284734927e-01,1.741277091260551799e+02
1.138942041149585638e+00,3.520683220488884935e+00,3.523747339422049762e+00,5.805322544009815927e-02,-9.983134893489123973e-01,0.000000000000000000e+00,1.752399485283253568e+02
9.411504097618142994e-01,3.612893778177778792e+00,3.387509984242004002e+00,8.948040391273959226e-01,-4.464591039081523549e-01,-9.941183397516288199e-06,1.763521879305955338e+02
7.477041971495566042e-01,3.701473393591559802e+00,3.245345046355335938e+00,-0.000000000000000000e+00,-0.000000000000000000e+00,-1.000000000000000000e+00,1.774644273328657107e+02
5.611832746701219676e-01,3.786617895108211673e+00,3.097989412509448925e+00,4.851295445986909989e-03,-9.345743555220137794e-06,-9.999882323533376693e-01,1.785766667351358876e+02
3.843822969046821747e-01,3.868920771366984646e+00,2.945889176509568053e+00,1.077704914307777741e-02,-2.076136955470875086e-05,-9.999419257040546016e-01,1.796889061374060645e+02
2.274651315000096041e-01,3.945046722052875765e+00,2.797642423703220249e+00,1.817777018776967762e-02,-3.501843589451006459e-05,-9.998347700718903663e-01,1.807455580714020300e+02
7.634629772286163907e-02,4.023542165386441383e+00,2.638339384183403080e+00,2.768059919410401776e-02,-5.332509314330212121e-05,-9.996168173778839927e-01,1.818577974736722069e+02
-5.761210645513872158e-02,4.100818255893774023e+00,2.476292034953840204e+00,4.032527313904991917e-02,-7.768433519412259070e-05,-9.991866023478321868e-01,1.829700368759423839e+02
-1.719142479875013785e-01,4.177383666323077449e+00,2.312203102459728932e+00,5.796787119464912735e-02,-1.116717925467458508e-04,-9.983184429021489947e-01,1.840822762782125608e+02
-2.640584319240574240e-01,4.253726525447494744e+00,2.146774727730740295e+00,8.426859032564497365e-02,-1.623386255716217290e-04,-9.964430632658842768e-01,1.851945156804827377e+02
-3.315366798256365044e-01,4.330314567267533832e+00,1.980708667714976112e+00,1.275404293977005776e-01,-2.456993517184328005e-04,-9.918333420998098893e-01,1.863067550827529146e+02
-3.718343063732222342e-01,4.407595268594280746e+00,1.814706496502915822e+00,2.111939093598198536e-01,-4.068530023117887160e-04,-9.774440992302069198e-01,1.874189944850230916e+02
-3.726571702256369356e-01,4.410049744653909087e+00,1.809471314945444886e+00,4.283640462843228414e-01,-8.252188656457541465e-04,-9.036058669933183518e-01,1.874541149268237064e+02
-3.831763735020287664e-01,4.488460841239779064e+00,1.644247128358915955e+00,9.988173213119713179e-01,-1.924164513875452299e-03,-4.858246842330692788e-02,1.885663543290938833e+02
-3.613838758756027780e-01,4.568413230762325306e+00,1.480513865147901731e+00,5.140368706283120481e-01,-9.902626678393888250e-04,8.577675180458284032e-01,1.896785937313640602e+02
-3.047422237974768411e-01,4.650293690378758171e+00,1.318973768257992285e+00,3.050578744490296534e-01,-5.876765692469980385e-04,9.523336326481859349e-01,1.907908331336342371e+02
-2.132798446248698188e-01,4.734476137192809908e+00,1.162277930050142460e+00,2.231957541681076629e-01,-4.299738707512885624e-04,9.747735482889346992e-01,1.919030725359044141e+02
-9.132973114378410695e-02,4.821305498247445698e+00,1.015448407219433191e+00,1.805755523721384870e-01,-3.478684865932576953e-04,9.835610549798181612e-01,1.930153119381745910e+02
5.587953347619390582e-02,4.911072535076030476e+00,8.824045744781873202e-01,1.545809910063409842e-01,-2.977914490143281556e-04,9.879800749710240249e-01,1.941275513404447679e+02
2.239611978661611436e-01,5.004058305168451071e+00,7.655428936692352249e-01,1.371059295286407298e-01,-2.641267413088034034e-04,9.905563559561626485e-01,1.952397907427149448e+02
2.258805880153246515e-01,5.005082384925766625e+00,7.643727086219702649e-01,1.245626970413554468e-01,-2.399629204315063802e-04,9.922117097291183185e-01,1.952518229866118702e+02
4.104339292778617088e-01,5.101602171709219036e+00,6.661096411977410758e-01,1.151258783967382959e-01,-2.217834283738400630e-04,9.933508861099838994e-01,1.963640623888820471e+02
5.702748491735181169e-01,5.182671561148876727e+00,5.997418353634721422e-01,1.077704918812502910e-01,-2.076136964148970695e-04,9.941757782083741057e-01,1.972735658455256385e+02
7.742495438940454333e-01,5.282118943649555476e+00,5.369542888499101441e-01,1.018772047492368382e-01,-1.962606153984363603e-04,9.947969625176048547e-01,1.983858052477958154e+02
8.904647104810360370e-01,5.336994740226705503e+00,5.103545196715784105e-01,9.704995188563640685e-02,-1.869611885047947012e-04,9.952794943554849061e-01,1.990019335806145477e+02
9.398522456771536415e-01,5.360218430597092798e+00,5.001113268551390378e-01,-2.609882809020124261e-01,2.344499599399086948e-05,9.653419687769430046e-01,1.992621964597283579e+02
1.014709512620612042e+00,5.395524887114349077e+00,4.853759543192756598e-01,-5.853361346762493422e-01,2.308247148017714546e-04,8.107906981226526977e-01,1.996558435839786227e+02
1.227959530924416898e+00,5.499440397571674133e+00,4.565851074366397699e-01,8.977905864051844986e-01,-4.346722246363473596e-01,7.093743787256295841e-02,2.007680829862487997e+02
1.443448048842023157e+00,5.610344266113526324e+00,4.498367860406026209e-01,5.869494247405384613e-01,-0.000000000000000000e+00,8.096235994564084937e-01,2.018803223885189766e+02
1.659818813467395016e+00,5.727204127666739808e+00,4.637944901406798048e-01,2.272585225143718916e-03,-5.869387520140129100e-01,8.096281472013108216e-01,2.029925617907891535e+02
1.875711778720222656e+00,5.849001044913630487e+00,4.971276570402852757e-01,0.000000000000000000e+00,5.852385676688680594e-01,8.108611588384854185e-01,2.041048011930593304e+02
2.089762884236720186e+00,5.974729126976033200e+00,5.485112798078152219e-01,1.844257287535064577e-04,5.264172430052902474e-01,8.502263535399616767e-01,2.052170405953295074e+02
2.300603832008740746e+00,6.103395155149900830e+00,6.166255273407624804e-01,3.728566082870468407e-04,4.632670879119925589e-01,8.862186334282821099e-01,2.063292799975996843e+02
2.506861860753501148e+00,6.234018215557068920e+00,7.001553659138671781e-01,5.623631049979057380e-04,3.965715673456002843e-01,9.180036360063026368e-01,2.074415193998698612e+02
2.707159517995079590e+00,6.365629338583379315e+00,7.977901821028008378e-01,7.498174708370532182e-04,3.273263160716657350e-01,9.449110649054293098e-01,2.085537588021400381e+02
2.900114429838016594e+00,6.497271144975493407e+00,9.082234069752911365e-01,9.321415115197452268e-04,2.566684126961386592e-01,9.664990724445871040e-01,2.096659982044102151e+02
3.084339068412365048e+00,6.627997498471660087e+00,1.030152141441957214e+00,1.106554354711760226e-03,1.857848546043585070e-01,9.825898245641960793e-01,2.107782376066803920e+02
3.258440516968538425e+00,6.756873164844483526e+00,1.162276782659317664e+00,1.270775055453924251e-03,1.158169168312461056e-01,9.932697654245107310e-01,2.118904770089505689e+02
3.421069358993466647e+00,6.880897634095933135e+00,1.302918765043131533e+00,-2.021840425849999456e-01,2.453461191020459287e-01,9.481175532419762186e-01,2.130027164112207458e+02
3.570961161377829818e+00,6.995486183325659191e+00,1.450361526992477890e+00,-4.660891516076867691e-01,4.014808742165712485e-01,7.883996514407679568e-01,2.141149558134909228e+02
3.706887558681879469e+00,7.099101758162499998e+00,1.603955239388331178e+00,-7.000222169172278797e-01,5.212451806881236438e-01,4.881314960455787610e-01,2.152271952157610997e+02
3.793430041013572840e+00,7.165640978069745870e+00,1.713572151675303523e+00,-8.133788748812708080e-01,5.582532543532141567e-01,1.636096265533409366e-01,2.159978798818638381e+02
3.906259151920644879e+00,7.254942974422704971e+00,1.876433047887633654e+00,-8.351919860094663139e-01,5.440521584196161831e-01,-8.038404956532353707e-02,2.171101192841340151e+02
4.001965267897346301e+00,7.336002367325751727e+00,2.045484878520353877e+00,-8.462642077513975458e-01,2.006320688882415049e-01,4.935419572969689250e-01,2.182223586864041920e+02
4.080280445389964150e+00,7.409660138983407585e+00,2.219955245116712383e+00,-4.786746219082346765e-01,-2.325610674843665016e-01,8.466321256788810201e-01,2.193345980886743689e+02
4.142090946695621945e+00,7.476517607445170022e+00,2.398151657491157440e+00,-9.998929794933587578e-01,1.462974913980168157e-02,0.000000000000000000e+00,2.204468374909445458e+02
4.188782655521475995e+00,7.537062981965925168e+00,2.578000126129440073e+00,-9.998975059519227271e-01,1.371720719563392088e-02,-4.100709435780129121e-03,2.215590768932147228e+02
4.221740290439048415e+00,7.591770687288621033e+00,2.757427135222584091e+00,-9.998843802190281460e-01,1.280419732046119904e-02,-8.202360939922994157e-03,2.226713162954848997e+02
4.242347629200319048e+00,7.641101564049367134e+00,2.934359048103376111e+00,-9.998535908221850566e-01,1.189076764326246934e-02,-1.230473749564146672e-02,2.237835556977550766e+02
4.251987733623069587e+00,7.685503061895386345e+00,3.106721512646763994e+00,-9.998051290899936383e-01,1.097696639040348504e-02,-1.640762183270669944e-02,2.248957951000252535e+02
4.252043175060936875e+00,7.725409425389715423e+00,3.272438866464736584e+00,-9.997389891571685228e-01,1.006284187293412895e-02,-2.051079648485653814e-02,2.260080345022954305e+02
4.243896260475301219e+00,7.761241872773165795e+00,3.429433541725361856e+00,-9.996551679683269853e-01,9.148442473837087308e-03,-2.461404384734131034e-02,2.271202739045656074e+02
4.228929259126788409e+00,7.793408767651060387e+00,3.575625469425485203e+00,-9.995536652805389055e-01,8.233816635235735246e-03,-2.871714623457156945e-02,2.282325133068357843e+02
4.208524629904614400e+00,7.822305783669264656e+00,3.708931482946272506e+00,-9.994344836646341657e-01,7.319012845569059823e-03,-3.281988593783211755e-02,2.293447527091059612e+02
4.184065249312364010e+00,7.848316062241018187e+00,3.827264720720543245e+00,-9.992976285052679319e-01,6.404079626741603082e-03,-3.692204528302670680e-02,2.304569921113761382e+02
4.156934640129214209e+00,7.871810363383119125e+00,3.928534027840650644e+00,-9.991431079997400433e-01,5.489065521256318927e-03,-4.102340668841761989e-02,2.315692315136463151e+02
4.128517200765920769e+00,7.893147209717038315e+00,4.010643356435307894e+00,-9.989709331555730598e-01,4.574019079338333127e-03,-4.512375272232442558e-02,2.326814709159164920e+02
4.100198435335270730e+00,7.912673023687647245e+00,4.071491164643450844e+00,-9.987811177868480828e-01,3.658988846057570962e-03,-4.922286616074623283e-02,2.337937103181866689e+02
4.073365184457022892e+00,7.930722258049365259e+00,4.108969814012806587e+00,-9.985736785093011214e-01,2.744023348458203646e-03,-5.332053004487179171e-02,2.349059497204568459e+02
4.049405856817707594e+00,7.947617519666594355e+00,4.120964965150361259e+00,-9.983486347341848921e-01,1.829171082702893674e-03,-5.741652773844195534e-02,2.360181891227270228e+02
4.040923220719908393e+00,7.953970308745834217e+00,4.119636863028545370e+00,-9.981060086609004900e-01,9.144805012397627620e-04,-6.151064298492907312e-02,2.364505243634859539e+02
4.021890156173532738e+00,7.970084976957522827e+00,4.100118332156778678e+00,-9.978458252684040408e-01,-0.000000000000000000e+00,-6.560265996449830828e-02,2.375627637657561309e+02
4.007800003943467360e+00,7.986215406487399804e+00,4.053182510744018252e+00,-9.990754250066158360e-01,0.000000000000000000e+00,-4.299180326353019971e-02,2.386750031680263078e+02
3.998792746077016513e+00,8.003098681877542475e+00,3.979835570168138936e+00,-9.997934471444356319e-01,0.000000000000000000e+00,-2.032395254488008826e-02,2.397872425702964847e+02
3.998643102726602283e+00,8.003504771404264417e+00,3.977826252045507438e+00,-9.999972009522323235e-01,0.000000000000000000e+00,2.366027831750945609e-03,2.398131360920807253e+02
3.994581807879244550e+00,8.021967100178825305e+00,3.879484121326469914e+00,-9.996863719571121853e-01,0.000000000000000000e+00,2.504311728252463926e-02,2.409253754943509023e+02
3.994777010985839372e+00,8.042987877053915824e+00,3.758385522901499076e+00,-9.988630243651323015e-01,0.000000000000000000e+00,4.767240875119570925e-02,2.420376148966210792e+02
3.998285372574153396e+00,8.067619342104743296e+00,3.617118922254591418e+00,-9.982803547940086730e-01,0.000000000000000000e+00,5.862024592534549605e-02,2.431498542988912561e+02
3.999730528769333660e+00,8.075352859902848124e+00,3.573587092476875338e+00,-9.975776055962898292e-01,0.000000000000000000e+00,6.956235197844530538e-02,2.434696101558489261e+02
4.005252078468578780e+00,8.105120750804097440e+00,3.413891016066524120e+00,-9.967550301912023736e-01,0.000000000000000000e+00,8.049478112608049463e-02,2.445818495581191030e+02
4.010576350222626374e+00,8.140653710327310222e+00,3.240639237397398453e+00,-9.993858057240568860e-01,0.000000000000000000e+00,3.504299241328778097e-02,2.456940889603892799e+02
4.011103797792490155e+00,8.144975330138363390e+00,3.220601141894119834e+00,-9.999398562178336558e-01,0.000000000000000000e+00,-1.096740384313219831e-02,2.458183797683853982e+02
4.013760818722648338e+00,8.187201493457916257e+00,3.037047959342516368e+00,-9.983598334277112851e-01,0.000000000000000000e+00,-5.725070303666655175e-02,2.469306191706555751e+02
4.010748664121650542e+00,8.236785054316431598e+00,2.846850876202787539e+00,-9.946283708221319575e-01,0.000000000000000000e+00,-1.035104050601271114e-01,2.480428585729257520e+02
3.999125184835542246e+00,8.294621415892061478e+00,2.653441645660046699e+00,-9.887695021967313203e-01,0.000000000000000000e+00,-1.494485581249551387e-01,2.491550979751959289e+02
3.976320427736253826e+00,8.362062759923865940e+00,2.460303780935136686e+00,-9.808478937266825737e-01,0.000000000000000000e+00,-1.947752791601913835e-01,2.502673373774661059e+02
3.969111400863734040e+00,8.379968375598940256e+00,2.413208335535581117e+00,-9.709659460304902456e-01,-0.000000000000000000e+00,-2.392177494441311558e-01,2.505401618712300547e+02
3.932364736049142273e+00,8.458958750727534337e+00,2.224223243958294294e+00,-9.859773271094345315e-01,-1.081339837621869362e-04,-1.668792939018400034e-01,2.516524012735002316e+02
3.881985258251277937e+00,8.548929405401446857e+00,2.042103417203007254e+00,-9.970146741362259091e-01,-2.395194828376738907e-04,-7.721193034403861510e-02,2.527646406757704085e+02
3.818555300281634146e+00,8.649264047487847051e+00,1.869028466127199639e+00,-9.994326313848892474e-01,-3.980672150628545647e-04,3.367873016561366561e-02,2.538768800780405854e+02
3.788947936080446333e+00,8.693624463848941275e+00,1.799252063739407825e+00,-9.856932800853319687e-01,-5.850544634128369663e-04,1.685479614409331472e-01,2.543416395648665684e+02
3.710871528585485635e+00,8.803335633539884242e+00,1.639826532921006885e+00,-9.453484813950449039e-01,-7.949219582447209593e-04,3.260607563371628603e-01,2.554538789671367454e+02
3.620516431521630274e+00,8.916260724161030993e+00,1.494475884734213444e+00,-8.678971664397401309e-01,-1.010516870933415813e-03,4.967428785010649106e-01,2.565661183694069223e+02
3.517974846876640083e+00,9.027812899825452320e+00,1.365217334987431030e+00,-7.497741371428375823e-01,-1.203709624218090701e-03,6.616927492083117812e-01,2.576783577716770992e+02
3.403318787031140769e+00,9.133404100140317894e+00,1.254072713769001091e+00,-6.007892444222183714e-01,-1.347355826875281737e-03,7.994063224786601696e-01,2.587905971739472761e+02
3.276314809377065984e+00,9.227095228359315726e+00,1.162615289446780054e+00,-4.410601313177454075e-01,-1.430859522879833218e-03,8.974764137307447154e-01,2.599028365762174531e+02
3.137130100433976665e+00,9.302960861158064532e+00,1.091506579773088292e+00,-2.897849895137246667e-01,-1.462636155987621055e-03,9.570906542997927868e-01,2.610150759784876300e+02
3.082691658808374591e+00,9.327046286047828261e+00,1.069305058913712969e+00,-1.576700874727438306e-01,-1.459579785777515883e-03,9.874907661052766406e-01,2.614305621892360136e+02
2.932390357529028435e+00,9.380696662987052292e+00,1.021679291039900406e+00,-4.733902181468507830e-02,-1.437116894232527437e-03,9.988778462397996938e-01,2.625428015915061906e+02
2.798990940581060904e+00,9.412747415423098118e+00,9.963698615788895152e-01,4.300497027435479930e-02,-1.405741786235125248e-03,9.990738693518774749e-01,2.634933022886224308e+02
2.639745308955584679e+00,9.434834676998544722e+00,9.849455096440397073e-01,1.166485428797343071e-01,-1.371546479450316434e-03,9.931723094731795820e-01,2.646055416908926077e+02
2.479346851301223342e+00,9.438445117640249293e+00,9.944393499231121147e-01,2.358828471657376247e-01,-2.017697869279051759e-01,9.506041423726561135e-01,2.657177810931627846e+02
2.335012823499995616e+00,9.425178837868784854e+00,1.019889140136621908e+00,3.562189680751349230e-01,-4.175095217746278564e-01,8.359389008839148705e-01,2.667257437918306096e+02
2.179032838211965917e+00,9.392701201433025560e+00,1.065725573342171106e+00,4.501334266828230235e-01,-6.022815195864879012e-01,6.592699518007555382e-01,2.678379831941007865e+02
2.028649985021018676e+00,9.342516100162006509e+00,1.130132173134485551e+00,5.048512704463933298e-01,-7.270626860542610537e-01,4.653010265153361136e-01,2.689502225963709634e+02
1.908343077337855354e+00,9.289070382823789274e+00,1.196431702318974333e+00,6.096715149259824829e-01,-7.026456654624528841e-01,3.668647062537965797e-01,2.698793244893731753e+02
1.772699113873711374e+00,9.212611483599269846e+00,1.289665540468860616e+00,7.054620328393993445e-01,-6.610895092366370074e-01,2.555073012642981589e-01,2.709915638916433522e+02
1.648360210028796402e+00,9.123549588499493268e+00,1.398129264656873483e+00,7.848130198552127901e-01,-6.041278474481949212e-01,1.381957589919167451e-01,2.721038032939135292e+02
1.565472379834722982e+00,9.054258349665813554e+00,1.483898379534714262e+00,8.435614153261016268e-01,-5.365368372888003057e-01,2.307294530734137553e-02,2.729036506882840172e+02
1.459512816761597387e+00,8.954765866453476164e+00,1.612831897904176470e+00,8.635619779483005853e-01,-5.034941851496513854e-01,2.746480952978396298e-02,2.740158900905541941e+02
1.366276995124691807e+00,8.854019868326068021e+00,1.753622452567520806e+00,8.826152753353160296e-01,-4.690123647868916779e-01,3.190105675008124420e-02,2.751281294928243710e+02
1.355482042089777961e+00,8.841477772505770716e+00,1.771893988616803473e+00,9.005664604390973826e-01,-4.331950679258526060e-01,3.636046557610894681e-02,2.752667810832289774e+02
1.276207052821432431e+00,8.741655903680760176e+00,1.923928271321632355e+00,9.172688388389858005e-01,-3.961711442486806067e-01,4.082035962200546847e-02,2.763790204854991543e+02
1.211415744949269291e+00,8.643689674976165804e+00,2.085851160860210385e+00,9.325884112794210479e-01,-3.580930742052236271e-01,4.525710279699270144e-02,2.774912598877693313e+02
1.160367960480259253e+00,8.547893227160463070e+00,2.255175858358660079e+00,9.464082029632238102e-01,-3.191343313656487268e-01,4.964667066099975185e-02,2.786034992900395082e+02
1.121763209985851661e+00,8.453712696819280836e+00,2.428507028449297334e+00,9.586320932582556020e-01,-2.794857054399664809e-01,5.396526873850968770e-02,2.797157386923096851e+02
1.095006792369622284e+00,8.359607757041802145e+00,2.602325923522506468e+00,9.691878800528673787e-01,-2.393507497714214838e-01,5.818996255787701327e-02,2.808279780945798620e+02
1.090014096450012904e+00,8.336605441732258370e+00,2.644400464867286527e+00,9.780293644160913402e-01,-1.989405988431572903e-01,6.229928147083468870e-02,2.810983457709326672e+02
1.075609828893278941e+00,8.240230898228027456e+00,2.814578510356991359e+00,9.851373183111112874e-01,-1.584684601426707695e-01,6.627375959460089783e-02,2.822105851732028441e+02
1.072028823885248228e+00,8.139889896362372923e+00,2.977480781362136675e+00,9.905192910821855046e-01,-1.181441118341657048e-01,7.009638245274053825e-02,2.833228245754730210e+02
1.077227801985139788e+00,8.034865184180613795e+00,3.130293122760582580e+00,9.942083066788329759e-01,-7.816872941944308373e-02,7.375291636103187276e-02,2.844350639777431979e+02
1.088970539784088976e+00,7.924939223118436793e+00,3.271151733725854882e+00,9.962605901845470457e-01,-3.873032307597726320e-02,7.723210808704064623e-02,2.855473033800133749e+02
1.102644478172119413e+00,7.826532424147727873e+00,3.382458623418062693e+00,9.967525284900820015e-01,-0.000000000000000000e+00,8.052575332543095155e-02,2.865046232822581374e+02
1.120843011444988102e+00,7.707657833014057047e+00,3.498901240524003420e+00,9.994915895296015984e-01,0.000000000000000000e+00,3.188357664363230398e-02,2.876168626845283143e+02
1.139948100735322489e+00,7.583454224595141291e+00,3.599280105758628778e+00,9.998563313835344690e-01,0.000000000000000000e+00,-1.695041569577892399e-02,2.887291020867984912e+02
1.157988508947989104e+00,7.453796610806380230e+00,3.682151916868551034e+00,9.978441539010536321e-01,0.000000000000000000e+00,-6.562807726492125848e-02,2.898413414890686681e+02
1.173489354353546732e+00,7.319185060457376046e+00,3.746685199385232146e+00,9.981212646708946812e-01,9.843788540019097165e-04,-6.126150512389894054e-02,2.909535808913388450e+02
1.185972038465731737e+00,7.181350813725592808e+00,3.793276916015082989e+00,9.983783651449564811e-01,1.968995606543273800e-03,-5.689255721784060305e-02,2.920658202936090220e+02
1.195461874809200076e+00,7.042637602543421416e+00,3.822935732655764252e+00,9.986154252626036065e-01,2.953790882970812760e-03,-5.252149604694238139e-02,2.931780596958791989e+02
1.201992646304508972e+00,6.905388563434484261e+00,3.836665459813800361e+00,9.988324185745267592e-01,3.938705236793548121e-03,-4.814858466890928335e-02,2.942902990981493758e+02
1.205606611426873975e+00,6.771947118399201493e+00,3.835465340439505599e+00,9.990293222543783491e-01,4.923679167587520500e-03,-4.377408661996601280e-02,2.954025385004195527e+02
1.206354515438155417e+00,6.644657855846691774e+00,3.820330336452284925e+00,9.992061171085946381e-01,5.908653138943906549e-03,-3.939826583555524481e-02,2.965147779026897297e+02
1.204295606695130250e+00,6.525867411889103131e+00,3.792251414038453117e+00,9.993627875843953401e-01,6.893567596447935930e-03,-3.502138657077883549e-02,2.976270173049599066e+02
1.199497658039303083e+00,6.417925352314525433e+00,3.752215827803390358e+00,9.994993217759521320e-01,7.878362985675929631e-03,-3.064371332063791503e-02,2.987392567072300835e+02
1.192036993275721102e+00,6.323185055554917611e+00,3.701207403859534395e+00,9.996157114287236300e-01,8.862979770197771875e-03,-2.626551074012801676e-02,2.998514961095002604e+02
1.181998518750532856e+00,6.244004596966002296e+00,3.640206821931343040e+00,9.997119519419492839e-01,9.847358449572152575e-03,-2.188704356424556879e-02,3.009637355117704374e+02
1.169475760039250689e+00,6.182747634736512232e+00,3.570191896558049915e+00,9.997880423693050744e-01,1.083143957732187086e-02,-1.750857652796217884e-02,3.020759749140406143e+02
1.161457655576474179e+00,6.155354840802238492e+00,3.527337420372054666e+00,9.998439854177160191e-01,1.181516377887649807e-02,-1.313037428622301425e-02,3.027069709701314650e+02
1.145785545874038469e+00,6.121904536622304605e+00,3.447041215846910589e+00,9.998797874443324796e-01,1.279847176946983904e-02,-8.752701334025871083e-03,3.038192103724016420e+02
1.127896582467439623e+00,6.112478433552989365e+00,3.360235932939060977e+00,9.998954584516689392e-01,1.378130437197955423e-02,-4.375821926637013873e-03,3.049314497746718189e+02
1.107915515855868227e+00,6.129465406701035235e+00,3.267891990081865039e+00,9.998910120809154645e-01,1.476360253469647180e-02,-0.000000000000000000e+00,3.060436891769419958e+02
1.086323316800769101e+00,6.174442653708437589e+00,3.170730767966371655e+00,9.999066823644948698e-01,1.353367301238545331e-02,-1.861788823411860685e-03,3.071559285792121727e+02
1.064300446118538135e+00,6.247351186765042641e+00,3.068977366828650410e+00,9.999173742914010399e-01,1.230361484314393752e-02,-3.723661099203889966e-03,3.082681679814823497e+02
1.043373370758119867e+00,6.347311499197108020e+00,2.962608120564494740e+00,9.999230870323850828e-01,1.107344639053443880e-02,-5.585589016484575169e-03,3.093804073837525266e+02
1.025586723018392821e+00,6.473203102778237295e+00,2.851900227216746853e+00,9.999238199812731098e-01,9.843186025257764926e-03,-7.447544758543873065e-03,3.104926467860227035e+02
1.013244408303885402e+00,6.623320494410370962e+00,2.737685697627313175e+00,9.999195727550503898e-01,8.612852123781680053e-03,-9.309500504930545359e-03,3.116048861882928804e+02
1.007606913483392930e+00,6.795513675107183182e+00,2.621001087761005710e+00,9.999103451939175269e-01,7.382463066968651677e-03,-1.117142843353025397e-02,3.127171255905630574e+02
1.008445074011984799e+00,6.968867947936714380e+00,2.513517496692033504e+00,9.998961373613195480e-01,6.152037238702914163e-03,-1.303330072264407766e-02,3.137293721054334696e+02
1.016366509075383950e+00,7.175487847159432775e+00,2.394943938414741513e+00,9.998769495439462363e-01,4.921593024517071681e-03,-1.489508955306708196e-02,3.148416115077036466e+02
1.032347906860336950e+00,7.397648587358818695e+00,2.276775998925532285e+00,9.998527822517053743e-01,3.691148810218525950e-03,-1.675676711016658299e-02,3.159538509099738235e+02
1.056842301684837615e+00,7.633111999845376694e+00,2.160000782145791831e+00,9.998236362176686765e-01,2.460722980515912643e-03,-1.861830558595972684e-02,3.170660903122440004e+02
1.089896386858506983e+00,7.879566760186978769e+00,2.045394783629245428e+00,9.997895123979873011e-01,1.230333917645812757e-03,-2.047967718119002994e-02,3.181783297145141773e+02
1.130750762878235394e+00,8.134556921438125698e+00,1.933313105505977125e+00,9.997504119717840476e-01,0.000000000000000000e+00,-2.234085410740256281e-02,3.192905691167843543e+02
1.179353190227714343e+00,8.395172230043945305e+00,1.824140490378899582e+00,9.710765471069080501e-01,-1.878279726158962014e-03,-2.387609928866002429e-01,3.204028085190545312e+02
1.236837361333325225e+00,8.658409185167268873e+00,1.718719008904670442e+00,9.918844462186057198e-01,-2.407257448136120546e-03,-1.271198271757325859e-01,3.215150479213247081e+02
1.279353231798918022e+00,8.833068640795469051e+00,1.651106865160022696e+00,9.999920068680092644e-01,-2.974573944738566778e-03,2.671724150925392730e-03,3.222512256156924764e+02
1.349617321467068587e+00,9.096473539522975216e+00,1.553073256199841934e+00,9.890826619001542586e-01,-3.547719788429221609e-03,1.473190470129643603e-01,3.233634650179626533e+02
1.427492495281580398e+00,9.358233701868261534e+00,1.461520014547327939e+00,9.541821339544286351e-01,-4.080043033047836380e-03,2.991986104429983362e-01,3.244757044202328302e+02
1.512107038280415594e+00,9.617021573811781465e+00,1.377464121034779554e+00,8.943408506488494947e-01,-4.522906814280209381e-03,4.473633715165354907e-01,3.255879438225030071e+02
1.602585456112211038e+00,9.871515479555192485e+00,1.301924706296806900e+00,8.139743506871742751e-01,-4.843633312072700113e-03,5.808806208161289009e-01,3.267001832247731841e+02
1.698048321600067245e+00,1.012039911729700670e+01,1.235923342998310970e+00,7.213684259339435689e-01,-5.036566661299470178e-03,6.925331956389172428e-01,3.278124226270433610e+02
1.797612118591086716e+00,1.036236105841606658e+01,1.180484338762151975e+00,6.253965906148478693e-01,-5.119501960252076031e-03,7.802902633936960042e-01,3.289246620293135379e+02
1.900364963140279251e+00,1.059608092273448143e+01,1.136338229317621407e+00,5.328917941397669500e-01,-5.121127084789908225e-03,8.461678969305570508e-01,3.300369014315837148e+02
2.005342248735040300e+00,1.082021581233840912e+01,1.103625187412190511e+00,4.538920019638864600e-01,-9.108342352337138806e-03,8.910101507013306055e-01,3.311491408338538918e+02
2.111651370729539234e+00,1.103320667782102404e+01,1.082847188222711310e+00,3.680825683719316510e-01,-1.316001935276182519e-02,9.296999713624590767e-01,3.322613802361240687e+02
2.218595464230544767e+00,1.123308325147177023e+01,1.075820278511630201e+00,2.773385847029785078e-01,-1.716607448603950370e-02,9.606188814101503937e-01,3.333736196383942456e+02
2.325570784240043487e+00,1.141766851460297438e+01,1.085019772709926222e+00,1.840412839939137291e-01,-2.101409018413045657e-02,9.826938555825027732e-01,3.344858590406644225e+02
2.431965164113359279e+00,1.158478418167691792e+01,1.112925638035520359e+00,9.077840020839852975e-02,-2.460443040645289223e-02,9.955671268477971347e-01,3.355980984429345995e+02
2.537122537084918417e+00,1.173289667216582011e+01,1.161101665628071267e+00,0.000000000000000000e+00,-2.786260007479053613e-02,9.996117623943168162e-01,3.367103378452047764e+02
2.640310783560665175e+00,1.186176371576670441e+01,1.229274378984652305e+00,-4.909432756979222739e-02,-4.547541723888735843e-02,9.977583542258210425e-01,3.378225772474749533e+02
2.661744442255585152e+00,1.188675584020646170e+01,1.245730446755455745e+00,-9.938184466347189938e-02,-6.343728262418663055e-02,9.930251558367213516e-01,3.380563611789627885e+02
2.762045912959174121e+00,1.199592926662051795e+01,1.333419216049777978e+00,-1.504587651133895421e-01,-8.159819767993047035e-02,9.852430634802464837e-01,3.391686005812329654e+02
2.858693807236659445e+00,1.208677315855933010e+01,1.438429061664164177e+00,-2.018727113948330376e-01,-9.979267526269347544e-02,9.743145438501947808e-01,3.402808399835031423e+02
2.950984751106179527e+00,1.216088058230865343e+01,1.559125125197977191e+00,-2.531402591916613876e-01,-1.178463718741697003e-01,9.602250995534711286e-01,3.413930793857733192e+02
3.038283113432611149e+00,1.222110284296181248e+01,1.693393477283320792e+00,-3.037683118895894707e-01,-1.355839438612518877e-01,9.430492070187950215e-01,3.425053187880434962e+02
3.044677164443779560e+00,1.222518144718543986e+01,1.704010237601782496e+00,-3.532772479211314653e-01,-1.528373554867298589e-01,9.229495808922035804e-01,3.425893475087713682e+02
3.126292679696712096e+00,1.227351576565567370e+01,1.849789454208570882e+00,-4.012233792065124649e-01,-1.694537472591687854e-01,9.001695548717102424e-01,3.437015869110415451e+02
3.201553615796426833e+00,1.231118028551296639e+01,2.005070704948993754e+00,-4.472183095193974500e-01,-1.853020197665255220e-01,8.750193969856089327e-01,3.448138263133117221e+02
3.269794449482577026e+00,1.233927026546287564e+01,2.167985994363832880e+00,-4.909432874551755144e-01,-2.002774946162315661e-01,8.478582509198989703e-01,3.459260657155818990e+02
3.326465714797426809e+00,1.235794005575662169e+01,2.324081719357852904e+00,-5.321574785110473327e-01,-2.143043270765455366e-01,8.190739120867134293e-01,3.469571863659903102e+02
3.379973621068113943e+00,1.237014166389876557e+01,2.496110685522322736e+00,-5.812684356021485810e-01,-2.693195520814906097e-01,7.678502358137662132e-01,3.480694257682604871e+02
3.425022508923186493e+00,1.237181152302350107e+01,2.670274948187325137e+00,-6.355636641552261379e-01,-3.344085014471322448e-01,6.958662105358085492e-01,3.491816651705306640e+02
3.461436581586263994e+00,1.235987680797383170e+01,2.844673763973478042e+00,-6.917276057779701004e-01,-4.090327131802654059e-01,5.951513748224632749e-01,3.502939045728008409e+02
3.489026417369462951e+00,1.233126066105573315e+01,3.017406456749884835e+00,-7.422845499156373039e-01,-4.891230792015042739e-01,4.580090177594526857e-01,3.514061439750710178e+02
3.507588914158999760e+00,1.228288105544119979e+01,3.186571872629208713e+00,-7.751240759915438705e-01,-5.651970310047975676e-01,2.823738354763365432e-01,3.525183833773411948e+02
3.516907226803518860e+00,1.221164965694956450e+01,3.350267834825761959e+00,-7.776081448462029977e-01,-6.237620404463573021e-01,7.903473898889919191e-02,3.536306227796113717e+02
3.518258576474933008e+00,1.218359685663561898e+01,3.403157411725882042e+00,-7.452687289364628986e-01,-6.543932272404436867e-01,-1.278437554644967777e-01,3.539981465275122332e+02
3.516978664064166704e+00,1.208297026468331481e+01,3.558309364987722212e+00,-6.861840154232863309e-01,-6.567297164755031558e-01,-3.128219565113365408e-01,3.551103859297824101e+02
3.506192490513236670e+00,1.195427505160078496e+01,3.703928450527649296e+00,-6.147625299145822453e-01,-6.389745096346908237e-01,-4.623619878949056794e-01,3.562226253320525871e+02
3.486681979055259450e+00,1.180028675751421474e+01,3.839737245388892717e+00,-5.429923303647992139e-01,-6.109757464988436748e-01,-5.760798263740760650e-01,3.573348647343227640e+02
3.468601818069677378e+00,1.167857699752986456e+01,3.931828832666326434e+00,-4.773318780588035048e-01,-5.798416806534921752e-01,-6.602559379254298033e-01,3.581292570545904823e+02
3.438915622495257285e+00,1.149549680322696510e+01,4.055198655664636220e+00,-4.199773332410635662e-01,-5.494551011810224761e-01,-7.223005824100358074e-01,3.592414964568606592e+02
3.404826130178083332e+00,1.129911427990493777e+01,4.172410824523010930e+00,-8.013779620807470749e-01,-2.209846538558350171e-01,-5.558409346670373230e-01,3.603537358591308362e+02
3.368020743373678183e+00,1.109376081404614744e+01,4.284984612619397559e+00,-0.000000000000000000e+00,-4.806577624515451230e-02,-9.988441726084960059e-01,3.614659752614010131e+02
3.329935342171140622e+00,1.088346267295179537e+01,4.394223736756644350e+00,-0.000000000000000000e+00,-7.928181305841998719e-03,-9.999685714767146960e-01,3.625782146636711900e+02
3.291485322054054308e+00,1.067165766197600441e+01,4.501002504447169983e+00,0.000000000000000000e+00,-1.957776245836767657e-03,-9.999980835542491286e-01,3.636904540659413669e+02
3.270392003591038321e+00,1.055573442027328568e+01,4.558841860027320614e+00,0.000000000000000000e+00,4.013337166553821583e-03,-9.999919465299645926e-01,3.643004244119026680e+02
3.232435507302638733e+00,1.034722392977827532e+01,4.663501781603281771e+00,0.000000000000000000e+00,9.984520316762784606e-03,-9.999501534346820764e-01,3.654126638141728449e+02
3.195822121521069370e+00,1.014522733659418741e+01,4.767373317725112969e+00,0.000000000000000000e+00,1.595513449955982335e-02,-9.998727087400181013e-01,3.665249032164430218e+02
3.161243768996324199e+00,9.952877349058859124e+00,4.871115010879376150e+00,0.000000000000000000e+00,2.192454126060091463e-02,-9.997596283559925245e-01,3.676371426187131988e+02
3.129238354823498991e+00,9.772925787899689354e+00,4.974736739253899920e+00,-1.094088927442835729e-01,2.163526252250766099e-02,-9.937613443901167631e-01,3.687493820209833757e+02
3.100021371395753178e+00,9.607367268500738078e+00,5.076951092516319264e+00,-2.383627577742632175e-01,2.094910288950401281e-02,-9.709502205542633879e-01,3.698616214232535526e+02
3.073649563191327427e+00,9.457821771770280606e+00,5.175821629712248573e+00,-3.840565840361010452e-01,1.968969718900828725e-02,-9.230995916384788780e-01,3.709738608255237295e+02
3.050186525505582669e+00,9.325915279999129837e+00,5.269410951058868697e+00,-5.374749388334424394e-01,1.771399488843627967e-02,-8.430936510916682280e-01,3.720861002277939065e+02
3.029702741341366856e+00,9.213280380253348056e+00,5.355780142409941824e+00,-6.835249580196183228e-01,1.501832208060124678e-02,-7.297726233328858392e-01,3.731983396300640834e+02
3.012275621995165409e+00,9.121556870131792394e+00,5.432988219286594145e+00,-8.062124164661098602e-01,1.180933004597066113e-02,-5.915083086988220940e-01,3.743105790323342603e+02
2.997989551356661675e+00,9.052392366104230703e+00,5.499091570314472044e+00,-8.961320459966930496e-01,8.438441808549711209e-03,-4.437072783239244256e-01,3.754228184346044372e+02
2.986935933940902732e+00,9.007442914646778931e+00,5.552143399907744303e+00,-9.534510540293796854e-01,5.237275848342536413e-03,-3.015023358316697988e-01,3.765350578368746142e+02
2.981493257275626529e+00,8.990504297355286667e+00,5.578844301288380159e+00,-9.846800613102165700e-01,2.403918123023968730e-03,-1.743542314822501826e-01,3.772256164889884644e+02
2.980728277735526621e+00,8.988427335563185849e+00,5.582608542041413990e+00,-9.978459301533173509e-01,-0.000000000000000000e+00,-6.560106459853294603e-02,3.773305515500646834e+02
2.974257336712652577e+00,8.979387315637927358e+00,5.614159669014377130e+00,0.000000000000000000e+00,-0.000000000000000000e+00,-1.000000000000000000e+00,3.784427909523348603e+02
