4.031266193675001830e+00,1.065028877544479080e+01,3.516541609193565510e+00,-8.364154875335000350e-01,-1.324171320613922072e-02,-5.479359353477957217e-01,5.102426302381398671e+01
3.959646153209332109e+00,1.052739159037206917e+01,3.722107638813660468e+00,-8.013779620807470749e-01,-2.209846538558350171e-01,-5.558409346670373230e-01,5.285411796445713861e+01
3.930305775276734970e+00,1.047266307519914186e+01,3.804203652016991732e+00,-4.199773332410635662e-01,-5.494551011810224761e-01,-7.223005824100358074e-01,5.357699725417209891e+01
3.855424463036053240e+00,1.031989012791250460e+01,4.012355083759674201e+00,-5.025027884977946169e-01,-5.201152612288595378e-01,-6.906309163285234698e-01,5.540685219481525081e+01
3.781308787024113549e+00,1.014362612415112430e+01,4.219480652056902592e+00,-5.881037370367084849e-01,-4.826977308634089470e-01,-6.489506106806387509e-01,5.723670713545840272e+01
3.710863301105194800e+00,9.945808671519415611e+00,4.422872273156616352e+00,-6.735905068855400080e-01,-4.366405914866733906e-01,-5.963395198205877490e-01,5.906656207610155462e+01
3.647023860287720520e+00,9.728340292889164687e+00,4.619818839869139104e+00,-7.549309254224303434e-01,-3.822314834703685049e-01,-5.328962290023024906e-01,6.089641701674470653e+01
3.592761919210431198e+00,9.493089660722979772e+00,4.807604026400400521e+00,-8.278897946769289140e-01,-3.208356640495911294e-01,-4.600684346308169803e-01,6.272627195738785844e+01
3.551088904083258946e+00,9.241892777990901919e+00,4.983504088959985090e+00,-8.889300883924303731e-01,-2.548209884056986119e-01,-3.806173430344034769e-01,6.455612689803101034e+01
3.525060664459064519e+00,8.976554106089931651e+00,5.144785660363134561e+00,-9.360020541780849079e-01,-1.871316812566781451e-01,-2.981306566665936075e-01,6.638598183867415514e+01
3.517782011346301196e+00,8.698847640094903966e+00,5.288703536840968944e+00,-9.688480320661009282e-01,-1.206744319836230289e-01,-2.162664380505522899e-01,6.821583677931729994e+01
3.532411348316589095e+00,8.410517931587307316e+00,5.412498455267042097e+00,-9.887352604049451932e-01,-5.779058415206937693e-02,-1.380682194255000994e-01,7.004569171996044474e+01
3.572165402432097459e+00,8.113281059228947711e+00,5.513394859001946813e+00,-9.978459301533173509e-01,-0.000000000000000000e+00,-6.560106459853294603e-02,7.187554666060358954e+01
3.620998865108805642e+00,7.872672525834166102e+00,5.577537710905398960e+00,0.000000000000000000e+00,-0.000000000000000000e+00,-1.000000000000000000e+00,7.332673878888199681e+01
3.702851076963424859e+00,7.564471180313869780e+00,5.638987266723375136e+00,-0.000000000000000000e+00,-0.000000000000000000e+00,-1.000000000000000000e+00,7.515659372952514161e+01
3.806558948676019405e+00,7.251577153210746474e+00,5.678307354592057266e+00,-2.763581975163036455e-02,-9.378123423945636554e-05,-9.996180533942630175e-01,7.698644867016828641e+01
3.928552416186368745e+00,6.935390500600643549e+00,5.697466346546133487e+00,-6.108478112559657947e-02,-2.072891710356281113e-04,-9.981325596062066152e-01,7.881630361081143121e+01
4.065309650077047365e+00,6.617331454870076790e+00,5.698416290217595659e+00,-1.022385666458866110e-01,-3.469431720533101859e-04,-9.947598479636328150e-01,8.064615855145457601e+01
4.213351626482247703e+00,6.298841215076773636e+00,5.683094489393048399e+00,-1.537991294660132346e-01,-5.219122253620052344e-04,-9.881019964472925743e-01,8.247601349209772081e+01
4.369236777964967899e+00,5.981382787635078913e+00,5.653425072633418758e+00,-2.196493032419278846e-01,-7.453725977008296985e-04,-9.755786119042514359e-01,8.430586843274086561e+01
4.529555716368539819e+00,5.666441877481326550e+00,5.611320551226078202e+00,-3.052661815732864437e-01,-1.035910623849682546e-03,-9.522664990835520982e-01,8.613572337338401042e+01
4.690926019767649890e+00,5.355527829963476982e+00,5.558683367730847813e+00,-4.177121408873402664e-01,-1.417492243084608663e-03,-9.085783169716606933e-01,8.796557831402715522e+01
4.849987075751349686e+00,5.050174623787655470e+00,5.497407436373756617e+00,-5.632796410279420352e-01,-1.911470708388953582e-03,-8.262641177511969026e-01,8.979543325467030002e+01
5.003394973366997789e+00,4.751941915442244202e+00,5.429379676535767807e+00,-7.373892375608140926e-01,-2.502305827539824234e-03,-6.754634340917550217e-01,9.162528819531344482e+01
5.147817436138901748e+00,4.462416135608089363e+00,5.356481540578054812e+00,-9.031571345242876969e-01,-3.064833666924667282e-03,-4.292991930489412078e-01,9.345514313595658962e+01
5.279928788648977189e+00,4.183211638151215439e+00,5.280590537240761329e+00,-9.934728232328307040e-01,-3.371316949649581264e-03,-1.140192252201951695e-01,9.528499807659973442e+01
5.396404949229595793e+00,3.915971902382026748e+00,5.203581751848660453e+00,-9.831855896235285330e-01,-3.336407564892392413e-03,1.825786535748228911e-01,9.711485301724287922e+01
5.493918441370461814e+00,3.662370789352811240e+00,5.127329364554681135e+00,-9.153293473915370404e-01,-3.106139666036514518e-03,4.026940994106545935e-01,9.894470795788602402e+01
5.569133416482261900e+00,3.424113853053587064e+00,5.053708167850635036e+00,-8.354242181905876530e-01,-2.834984270398715166e-03,5.495983429058278746e-01,1.007745628985291688e+02
5.618700680690329463e+00,3.202939707455003226e+00,4.984595084573763657e+00,-7.631653996455299849e-01,-2.589776375400751514e-03,6.461980082313809604e-01,1.026044178391723136e+02
5.639252718351102089e+00,3.000621450436073534e+00,4.921870687638170594e+00,-7.028777248148339041e-01,-2.385192158038566997e-03,7.113066953273333715e-01,1.044342727798154584e+02
5.627398704993023415e+00,2.818968145724383589e+00,4.867420722721599979e+00,-6.536462618722720386e-01,-2.218126827620962166e-03,7.567969636922320387e-01,1.062641277204586032e+02
5.579719502381876417e+00,2.659826364067190418e+00,4.823137635140543722e+00,-6.134313672443861831e-01,-2.081658921587874710e-03,7.897452908228179691e-01,1.080939826611017480e+02
5.545513384399514578e+00,2.590441259677414010e+00,4.805239324967096159e+00,-5.803053925937803337e-01,-1.969247029484132074e-03,8.143965701012715330e-01,1.089727694863376541e+02
5.448156262698859997e+00,2.462011791243867265e+00,4.776399579422802688e+00,-5.527163705427698970e-01,-1.875624601683679657e-03,8.333673234332991120e-01,1.108026244269807989e+02
5.306359567931770549e+00,2.360825629956821547e+00,4.762463697163890508e+00,-5.294744752589631842e-01,-1.796754003837527100e-03,8.483239662559908245e-01,1.126324793676239437e+02
5.117563600708661120e+00,2.288629202763254877e+00,4.762464645620950066e+00,-1.741718878752641919e-02,0.000000000000000000e+00,-9.998483092623299262e-01,1.144623343082670885e+02
4.882054425082349880e+00,2.246698438660818198e+00,4.769544903429565608e+00,3.990535107475306348e-03,7.430332966762309308e-04,-9.999917617316034235e-01,1.162921892489102333e+02
4.854553084437373656e+00,2.243901705644868461e+00,4.770410006203759323e+00,4.930538481194205076e-03,1.974095546449444738e-02,-9.997929708032731178e-01,1.164868150020496387e+02
4.575126736742227251e+00,2.233739347199018344e+00,4.774012370656274484e+00,4.829515764968724673e-02,1.969902858937458423e-02,-9.986388366272497263e-01,1.183166699426927835e+02
4.557817804564630926e+00,2.234077187597713454e+00,4.773958555318576380e+00,9.518971486418695283e-02,1.961172970316231098e-02,-9.952659434754737022e-01,1.184222194607434915e+02
4.240764091683995041e+00,2.256501893533298109e+00,4.762464919010312769e+00,1.457118931078915935e-01,1.946837596136415799e-02,-9.891354945326455983e-01,1.202520744013866363e+02
3.895062788473937054e+00,2.312521476905493145e+00,4.727697420803052886e+00,1.998567873046856735e-01,1.925689172699667981e-02,-9.796358694378561882e-01,1.220819293420297811e+02
3.531017750825026891e+00,2.403337095503980780e+00,4.669464691030754899e+00,2.574759633222217237e-01,1.896414195670983321e-02,-9.660985920863045529e-01,1.239117842826729259e+02
3.158918714637630742e+00,2.530110527140901677e+00,4.591779613433508267e+00,3.182338737712185894e-01,1.857658101706684273e-02,-9.478302127608512206e-01,1.257416392233160707e+02
2.789057455961741372e+00,2.693965090637246984e+00,4.498639321278307790e+00,3.815685189683305500e-01,1.808128476317106756e-02,-9.241636935487284044e-01,1.275714941639592155e+02
2.431743945792396389e+00,2.895986436035930200e+00,4.394028433771091535e+00,4.466668188692349273e-01,1.746737208453560258e-02,-8.945298451330164768e-01,1.294013491046023603e+02
2.097322543750255175e+00,3.137223203008220107e+00,4.281922282374646116e+00,5.124674554407808724e-01,1.672770935099413686e-02,-8.585437035200478295e-01,1.312312040452455051e+02
1.794117766697399086e+00,3.417038692878502371e+00,4.165030398755214414e+00,5.777027209366455418e-01,1.586064166291833305e-02,-8.160931357807371667e-01,1.330610589858886499e+02
1.526347854541711069e+00,3.731478891398740227e+00,4.043538977820356095e+00,6.409842341604713445e-01,1.487135954430384918e-02,-7.674099648968717435e-01,1.348909139265317947e+02
1.393990279547697719e+00,3.913269248208050222e+00,3.975645357694881810e+00,7.009254206835904277e-01,1.377246925209158618e-02,-7.131015872442242332e-01,1.358851962906916810e+02
1.176243114080016250e+00,4.263648419021339286e+00,3.846416155068482556e+00,7.562800643581536475e-01,1.258345807368519385e-02,-6.541269913689043980e-01,1.377150512313348258e+02
9.994107730554094848e-01,4.634396115297989560e+00,3.709865159332770723e+00,8.060674314638373028e-01,1.132902975522874327e-02,-5.917152600855389855e-01,1.395449061719779706e+02
8.655980008386047198e-01,5.019921165163216514e+00,3.564902923193679740e+00,8.496559512546021375e-01,1.003662560544771667e-02,-5.272419090361588623e-01,1.413747611126211154e+02
7.769053230133841081e-01,5.414630192026189448e+00,3.410433188772887814e+00,8.867896111816017113e-01,8.733686036542788814e-03,-4.620908008482735307e-01,1.432046160532642602e+02
7.302471534651020502e-01,5.812935582238187848e+00,3.245364521455250006e+00,9.175584711093852652e-01,7.445234896691749725e-03,-3.975311567320737871e-01,1.450344709939074050e+02
7.165222547054317381e-01,6.208315056349516858e+00,3.068825668918482741e+00,9.423290281906037125e-01,6.192193666914523088e-03,-3.346306312442774433e-01,1.468643259345505498e+02
7.301380137330939490e-01,6.594585457412114771e+00,2.881291003151338348e+00,9.616563361003410693e-01,4.990563668033065441e-03,-2.742119353936715576e-01,1.486941808751936946e+02
7.698503329393409089e-01,6.969099281886893316e+00,2.685299609440432000e+00,9.761976740689572996e-01,3.851378341471783061e-03,-2.168484909498533397e-01,1.505240358158368394e+02
8.018030243913151223e-01,7.175962839504330226e+00,2.572424787587433759e+00,9.866406780832452927e-01,2.781196562951161917e-03,-1.628878058576277710e-01,1.515567833297407674e+02
8.743889897574409487e-01,7.534187756577321871e+00,2.371155277629445557e+00,9.936512681301733485e-01,1.782884516521194293e-03,-1.124899047297093224e-01,1.533866382703839122e+02
9.699991891902680630e-01,7.879600717966416035e+00,2.170354418050677303e+00,9.978410056383716364e-01,8.564795029355822291e-04,-6.567034269336749497e-02,1.552164932110270570e+02
1.087493178905451607e+00,8.211804752444686883e+00,1.973485504540138047e+00,9.997504119717840476e-01,0.000000000000000000e+00,-2.234085410740256281e-02,1.570463481516702018e+02
1.225760658221219712e+00,8.530400035508115764e+00,1.784015016404855603e+00,9.969532005140129272e-01,-5.984746047857168304e-04,7.799972957013298624e-02,1.588762030923133466e+02
1.378781425391592430e+00,8.835910899271375740e+00,1.605397617668039789e+00,9.823390808172324240e-01,-1.247683667598873183e-03,1.871052473465688593e-01,1.607060580329564914e+02
1.537372550571891372e+00,9.129317759730669835e+00,1.442403551905328207e+00,9.533879148174185802e-01,-1.927987256860226378e-03,3.017412248023662036e-01,1.625359129735996362e+02
1.700790142281030093e+00,9.409698481763784983e+00,1.302482713667536762e+00,9.088248091796574668e-01,-2.610939124457154273e-03,4.171698086108914239e-01,1.643657679142427810e+02
1.873906821927980415e+00,9.674650534120537770e+00,1.193884081340736758e+00,8.493193814540210829e-01,-3.263673902582208113e-03,5.278692420658893658e-01,1.661956228548859258e+02
1.926429897623996856e+00,9.749455464001751892e+00,1.167744603076687371e+00,7.776263198470925175e-01,-3.855974503449730115e-03,6.287149100679068070e-01,1.667308463368225091e+02
2.112611959703956988e+00,9.994240868885094997e+00,1.098027736215993810e+00,6.979818187001103347e-01,-4.366892818328883645e-03,7.161021652049374131e-01,1.685607012774656539e+02
2.310364339466407291e+00,1.021741996591807933e+01,1.062771497780151453e+00,6.150409483979806247e-01,-4.787796812480668227e-03,7.884806331137086399e-01,1.703905562181087987e+02
2.519015604241946704e+00,1.041614693715829887e+01,1.058891660899471843e+00,5.328917941397669500e-01,-5.121127084789908225e-03,8.461678969305570508e-01,1.722204111587519435e+02
2.737874284384538726e+00,1.058756171712984262e+01,1.083329403901005072e+00,2.773378187696424746e-01,5.245565289757158148e-03,9.607581476755155947e-01,1.740502660993950883e+02
2.966227553899503988e+00,1.072878794854606177e+01,1.133048833598585770e+00,-0.000000000000000000e+00,1.520023842410507010e-02,9.998844697023003825e-01,1.758801210400382331e+02
3.200489056387347819e+00,1.083670828250233775e+01,1.206726804615782633e+00,0.000000000000000000e+00,-2.786260007479053613e-02,9.996117623943168162e-01,1.777099759806813779e+02
3.431338263084527274e+00,1.090776383911967073e+01,1.306444125443275928e+00,-2.448797659954800587e-01,-6.247509321848839642e-02,9.675385072095787908e-01,1.795398309213245227e+02
3.646550579238247991e+00,1.093821089231279586e+01,1.435994965713494498e+00,-4.745297794859033025e-01,-9.320208557740265742e-02,8.752912998682681467e-01,1.813696858619676675e+02
3.772591773006745530e+00,1.093809288899144150e+01,1.533228549247786621e+00,-4.949032452436151197e-01,-1.338844556694606391e-01,8.585719133406533032e-01,1.825359819000927928e+02
3.942768299537483312e+00,1.090425102144517311e+01,1.711912971008741069e+00,-5.141577734506310726e-01,-1.743470555266087019e-01,8.397885973442906771e-01,1.843658368407359376e+02
4.060460071856875963e+00,1.082948295252017878e+01,1.911719640156430922e+00,-5.321574785110473327e-01,-2.143043270765455366e-01,8.190739120867134293e-01,1.860654124637310360e+02
4.143252841981890811e+00,1.069870611179445596e+01,2.162920246331400786e+00,-4.758351931806018009e-01,-2.239207051030478457e-01,8.505529888001883698e-01,1.878952674043741808e+02
4.149629925122400920e+00,1.068211406948317510e+01,2.191105502583782005e+00,-4.008834777756424828e-01,-2.348258528542926105e-01,8.855220246147240681e-01,1.880862724019417556e+02
4.197839706753765832e+00,1.049330699318361759e+01,2.475242351467615620e+00,-2.991645136008589390e-01,-2.465683664029255096e-01,9.217942473737585907e-01,1.899161273425849004e+02
4.223173927244751269e+00,1.024497812571466682e+01,2.782156249620567401e+00,-1.598836683337506448e-01,-2.575839377990450929e-01,9.529363712169248712e-01,1.917459822832280452e+02
4.228431255709390157e+00,1.013552922341074769e+01,2.904637925366205131e+00,2.734955118150712503e-02,-2.640097570905184376e-01,9.641321746582133256e-01,1.924541112591606691e+02
4.229538490729027878e+00,9.820960117524927924e+00,3.221932649592639031e+00,2.611860768703309077e-01,-2.588652084362513262e-01,9.299304474584869640e-01,1.942839661998038139e+02
4.206478967101106470e+00,9.455279230653722777e+00,3.532311060439710548e+00,5.110125975592334502e-01,-2.351628299665918798e-01,8.267796372298175100e-01,1.961138211404469587e+02
4.154674821560825571e+00,9.045262529757156500e+00,3.821740472098128283e+00,7.232208249073804884e-01,-1.941488987295149904e-01,6.627653004966422845e-01,1.979436760810901035e+02
4.085029963510324436e+00,8.671960726912747219e+00,4.042597810241195688e+00,8.650686213796876523e-01,-1.466720778381887802e-01,4.797328234412095438e-01,1.994950714206825921e+02
3.959786753077546351e+00,8.219405718073184985e+00,4.260423477645470136e+00,9.435112319316092400e-01,-1.030335674545530822e-01,3.149137011888893944e-01,2.013249263613257369e+02
3.843510614644142898e+00,7.911563792368215609e+00,4.379200963436923999e+00,9.810879084360087932e-01,-6.724591305870088187e-02,1.815062067742007068e-01,2.025733372791547708e+02
3.609643993509807025e+00,7.488379184789420329e+00,4.495931699777127477e+00,9.962104708628717331e-01,-3.913763934164563724e-02,7.767202153889571359e-02,2.044031922197979156e+02
3.266483096895569371e+00,7.138520759665937909e+00,4.520638125176757782e+00,9.998478898398346359e-01,-1.722466847731771167e-02,-2.740069100666611256e-03,2.062330471604410604e+02
2.805086347072444752e+00,6.896726567579110068e+00,4.437353460823086237e+00,9.978441539010536321e-01,0.000000000000000000e+00,-6.562807726492125848e-02,2.080629021010842052e+02
2.266471200851396084e+00,6.764065007303841526e+00,4.235719206947328175e+00,9.997952255198744309e-01,0.000000000000000000e+00,-2.023627998579258236e-02,2.098927570417273500e+02
2.007305187794016010e+00,6.730000618597052231e+00,4.107627965076202869e+00,9.995695561085288228e-01,0.000000000000000000e+00,2.933773169484440307e-02,2.107406962479321066e+02
1.480807531966928714e+00,6.696192673764537417e+00,3.751532706420172225e+00,9.965261052994138780e-01,0.000000000000000000e+00,8.328097896147304557e-02,2.125705511885752514e+02
1.029857417601582004e+00,6.708620436169693058e+00,3.274555936150584490e+00,9.899154506904445094e-01,0.000000000000000000e+00,1.416594525061214693e-01,2.144004061292183962e+02
6.541875320582493103e-01,6.735742318175965693e+00,2.712847051505322682e+00,9.788960604860833525e-01,0.000000000000000000e+00,2.043587599414969369e-01,2.162302610698615410e+02
3.350571712400925994e-01,6.747013224515842289e+00,2.118345322081967019e+00,9.625742487361689248e-01,0.000000000000000000e+00,2.710181094871700336e-01,2.180601160105046858e+02
1.287753267776461652e-01,6.734392818529605584e+00,1.687575105340796355e+00,9.400748076521650010e-01,0.000000000000000000e+00,3.409682624787016558e-01,2.194055690630804918e+02
-1.139056061620543764e-01,6.675617546921941425e+00,1.162277607765547671e+00,9.106444272103456639e-01,0.000000000000000000e+00,4.131909088916905226e-01,2.212354240037236366e+02
-3.083721315443984645e-01,6.562816618279881276e+00,7.482317246376229969e-01,8.737799005544812925e-01,0.000000000000000000e+00,4.863215863880613887e-01,2.230652789443667814e+02
-4.554633882999473693e-01,6.400480848598429695e+00,4.519093287283248439e-01,8.293590326580891903e-01,0.000000000000000000e+00,5.587160235293405774e-01,2.248951338850099262e+02
-5.558827560032798543e-01,6.193068275112626253e+00,2.593239427167413069e-01,7.777396114911656611e-01,0.000000000000000000e+00,6.285865864919252255e-01,2.267249888256530710e+02
-6.101993972103878505e-01,5.945006690457586451e+00,1.565730843171409259e-01,7.197895291411861018e-01,0.000000000000000000e+00,6.941923607608408986e-01,2.285548437662962158e+02
-6.188495588625142485e-01,5.660696159991873699e+00,1.298270095520260292e-01,6.568257658313823022e-01,0.000000000000000000e+00,7.540423816603534224e-01,2.303846987069393606e+02
-5.821376256669776872e-01,5.344511525531861373e+00,1.653175149187555981e-01,5.904687793182832323e-01,0.000000000000000000e+00,8.070604814079156419e-01,2.322145536475825054e+02
-5.002369273356819246e-01,5.000804895826385099e+00,2.493267893833203686e-01,5.224483612548767031e-01,0.000000000000000000e+00,8.526709270416658049e-01,2.340444085882256502e+02
-3.731903011593827868e-01,4.633908124101517423e+00,3.681763071751420480e-01,4.544112909947821133e-01,0.000000000000000000e+00,8.907919951461482633e-01,2.358742635288687950e+02
-2.009104109956020012e-01,4.248135273003717849e+00,5.082157523898234164e-01,3.877737146278775748e-01,0.000000000000000000e+00,9.217546019650224576e-01,2.377041184695119398e+02
-8.935878834129716564e-02,4.029058867503236385e+00,5.899221230327147403e-01,3.236391486398184081e-01,0.000000000000000000e+00,9.461805860763016218e-01,2.387156495117766326e+02
1.421702243210290484e-01,3.625634442232220866e+00,7.349008272372196116e-01,2.627797563322281649e-01,0.000000000000000000e+00,9.648558439798013975e-01,2.405455044524197774e+02
4.176342692263723122e-01,3.214927430010950271e+00,8.685228822589381448e-01,2.056638944991111551e-01,0.000000000000000000e+00,9.786226864831299999e-01,2.423753593930629222e+02
7.272329204778816836e-01,2.801171956494272308e+00,9.843179955960011940e-01,1.525089668257005593e-01,0.000000000000000000e+00,9.883020869338268177e-01,2.442052143337060670e+02
9.435985438882384946e-01,2.525221023818998489e+00,1.052278101027951607e+00,1.033420028163221233e-01,0.000000000000000000e+00,9.946458819368384496e-01,2.454242063671983090e+02
1.271283814429940096e+00,2.116302671774121791e+00,1.146591429665539286e+00,5.805654756294301166e-02,0.000000000000000000e+00,9.983132961576099973e-01,2.472540613078414538e+02
1.595323710718858257e+00,1.722469770087020402e+00,1.239199812777985521e+00,8.107072820046254402e-02,4.193825411801244130e-02,9.958256473251628771e-01,2.490839162484845986e+02
1.905415521690191127e+00,1.353086829942386604e+00,1.339827998122236741e+00,1.099907919644451254e-01,9.498792185529597587e-02,9.893833030654228811e-01,2.509137711891277434e+02
2.191343997525049492e+00,1.016363884552171859e+00,1.454039348198557846e+00,1.469291461624319950e-01,1.633342921810614079e-01,9.755684163633477901e-01,2.527436261297708882e+02
2.445321176927156337e+00,7.221755830292346801e-01,1.586073004575878631e+00,1.946358636495735539e-01,2.526528165504242640e-01,9.477781569916676752e-01,2.545734810704140330e+02
2.664379645028067234e+00,4.848613919460028066e-01,1.741679979983436377e+00,2.559347235340251880e-01,3.693921940361867273e-01,8.933346653268832149e-01,2.564033360110572062e+02
2.729686710703990382e+00,4.191006177931209664e-01,1.797530996604195908e+00,3.310433483136672739e-01,5.163058655681919129e-01,7.898345109686939480e-01,2.570024163355609517e+02
2.910343033677756708e+00,2.576829927225248729e-01,1.982066369208923318e+00,4.105550935347068164e-01,6.794291124702900309e-01,6.081287662169436725e-01,2.588322712762040965e+02
3.058594872071081383e+00,1.661023075877766930e-01,2.188132130963597710e+00,4.695226070274083341e-01,8.143223298929029852e-01,3.412149828597505485e-01,2.606621262168472413e+02
3.176716265881635692e+00,1.416705946696624474e-01,2.409321619544545712e+00,4.848638098243834293e-01,8.735517168097214347e-01,4.259676022155392539e-02,2.624919811574903861e+02
3.266897240836782235e+00,1.817367252781914855e-01,2.639240418142819955e+00,4.628020937141210656e-01,8.605097771493981362e-01,-2.129252110110942675e-01,2.643218360981335309e+02
3.289298349834487212e+00,2.037516013481485699e-01,2.708149710140205890e+00,4.256154872758316499e-01,8.126628281351283567e-01,-3.980333965364856175e-01,2.648636032361679327e+02
3.351694334765566552e+00,3.106800118657461751e-01,2.939565002151860895e+00,3.880631726601840303e-01,7.579584507925455350e-01,-5.243147536519228158e-01,2.666934581768110775e+02
3.390811343224472640e+00,4.761050605381542122e-01,3.165005959438459637e+00,3.553397298834840012e-01,7.077819337743767036e-01,-6.105558210261669005e-01,2.685233131174542223e+02
3.408597862174630677e+00,6.974770882916547787e-01,3.378081606049574415e+00,3.281548917393011799e-01,6.649154538361548017e-01,-6.709707939079224692e-01,2.703531680580973671e+02
3.408813463829780233e+00,9.721340017437624104e-01,3.573124907351975743e+00,3.058219348724061093e-01,6.290738125009488479e-01,-7.146601168222687095e-01,2.721830229987405119e+02
3.398911765252645267e+00,1.297140867662557984e+00,3.745922134944130288e+00,2.874166041047698239e-01,5.991756256693278049e-01,-7.472484628881156388e-01,2.740128779393836567e+02
3.388169628586415794e+00,1.669406801058064049e+00,3.892975501364847712e+00,2.501716772351109119e-01,5.862045977205857517e-01,-7.705701146038677063e-01,2.758427328800268015e+02
3.385817948875914585e+00,2.085000543274610596e+00,4.012597665880299758e+00,2.105862727398759848e-01,5.712945271620029075e-01,-7.932691756070382461e-01,2.776725878206699463e+02
3.397960254016637371e+00,2.538385542978965237e+00,4.106424688515401655e+00,1.687434788669947561e-01,5.543245443054969357e-01,-8.150152991940502467e-01,2.795024427613130911e+02
3.424487364797163647e+00,3.023314423646366933e+00,4.177269092241150616e+00,1.247947832919510808e-01,5.352066155092348732e-01,-8.354520577377646529e-01,2.813322977019562359e+02
3.462153292094118484e+00,3.533626198835588816e+00,4.227607819982998727e+00,7.896637031417483299e-02,5.138967863587414753e-01,-8.542098134121163255e-01,2.831621526425993807e+02
3.507648972194468140e+00,4.063200165843372069e+00,4.259901211298712020e+00,3.156102941330828776e-02,4.904055992846120815e-01,-8.709226427259041392e-01,2.849920075832425255e+02
3.557597412903868328e+00,4.605951666106987474e+00,4.276594994491102142e+00,-1.704567979712737213e-02,4.648062294223123669e-01,-8.852483345877961707e-01,2.868218625238856703e+02
3.608548674472686457e+00,5.155827904517536808e+00,4.280122266893682692e+00,-6.641580449916091589e-02,4.372388435053630173e-01,-8.968897003772660081e-01,2.886517174645288151e+02
3.656974677983141575e+00,5.706803825539942032e+00,4.272905464929816155e+00,-1.160658270198064029e-01,4.079099606139970358e-01,-9.056148120642107946e-01,2.904815724051719599e+02
3.699263833530040735e+00,6.252878044126399359e+00,4.257358325540206323e+00,-1.654887797380046044e-01,3.770861978711163021e-01,-9.112735391505294436e-01,2.923114273458151047e+02
3.731715480210081815e+00,6.788068829501995083e+00,4.235887840567007068e+00,-2.141794720779700845e-01,3.450826290331108215e-01,-9.138080394043370802e-01,2.941412822864582495e+02
3.750534129604890854e+00,7.306410139993325004e+00,4.210896205676659676e+00,-2.616599918613398135e-01,3.122468799823973629e-01,-9.132556786576155883e-01,2.959711372271013943e+02
3.751823504101853946e+00,7.801947707163726875e+00,4.184782765399214455e+00,-3.075025335364976464e-01,2.789407993868002755e-01,-9.097440421932356802e-01,2.978009921677445391e+02
3.731580361048326466e+00,8.268735167612422998e+00,4.159945955859676303e+00,-3.513470941364432720e-01,2.455218840383257828e-01,-9.034789559807955284e-01,2.996308471083876839e+02
3.688473197897883971e+00,8.701002649937837674e+00,4.138979365387882581e+00,-3.929125238631669959e-01,2.123265307640206934e-01,-8.947274405790802687e-01,3.014607020490308287e+02
3.670220348454057202e+00,8.837538344349553654e+00,4.133029948710803758e+00,-4.320005539515391346e-01,1.796566936516004465e-01,-8.837980503552484990e-01,3.020680477838736806e+02
3.607955324032710021e+00,9.224408381245831734e+00,4.120267251897082872e+00,-4.684934602898726541e-01,1.477708135125058719e-01,-8.710210470129144955e-01,3.038979027245168254e+02
3.536065815307706472e+00,9.564103495844255676e+00,4.118604682296397534e+00,-5.023467457296738603e-01,1.168791544270083027e-01,-8.567304186937884092e-01,3.057277576651599702e+02
3.460351005264444169e+00,9.851389464283002440e+00,4.130668649925614666e+00,-5.335785543036569711e-01,8.714309002340615840e-02,-8.412490762243913789e-01,3.075576126058031150e+02
3.384739165521136517e+00,1.008136153794649914e+01,4.157960098404874572e+00,0.000000000000000000e+00,2.192454126060091463e-02,-9.997596283559925245e-01,3.093874675464462598e+02
3.349995755485141835e+00,1.017173907832675006e+01,4.175276657984673179e+00,0.000000000000000000e+00,4.428996864183547787e-03,-9.999901919452895971e-01,3.102435355303400684e+02
3.279940284462183442e+00,1.032454657751659788e+01,4.223916764861382234e+00,0.000000000000000000e+00,-1.307862955193963075e-02,-9.999144710669223279e-01,3.120733904709832132e+02
3.219652553088519831e+00,1.040982135139410403e+01,4.292631094618192478e+00,0.000000000000000000e+00,-3.058224717579323751e-02,-9.995322536855320017e-01,3.139032454116263580e+02
3.203231756192207680e+00,1.042459334326797205e+01,4.317250158478372235e+00,-0.000000000000000000e+00,-4.806577624515451230e-02,-9.988441726084960059e-01,3.144664455474797933e+02
3.159225946527953965e+00,1.043746806328046972e+01,4.407075500708825366e+00,-0.000000000000000000e+00,-7.928181305841998719e-03,-9.999685714767146960e-01,3.162963004881229381e+02
3.132106192346728157e+00,1.038891465622877597e+01,4.512759443275725424e+00,-1.307614582578734731e-02,-2.752444167289548257e-02,-9.995356019276843140e-01,3.181261554287660829e+02
3.121651979679028965e+00,1.028386964564727535e+01,4.630479369463303740e+00,-2.645145710238631931e-02,-4.756448165618951812e-02,-9.985178718991155611e-01,3.199560103694092277e+02
3.127734673242059227e+00,1.012722767215394981e+01,4.756422407902213045e+00,-4.011218388195626761e-02,-6.802738545236022838e-02,-9.968767664725345368e-01,3.217858653100523725e+02
3.150316779235220466e+00,9.923844634235939210e+00,4.886782345314424347e+00,-5.404181829480826649e-02,-8.888810981346252638e-02,-9.945744747424301035e-01,3.236157202506955173e+02
3.189451396670299754e+00,9.678540803656016323e+00,5.017756544649144779e+00,-6.822100882027803959e-02,-1.101173598811490822e-01,-9.915745362847662170e-01,3.254455751913386621e+02
3.245281856022959044e+00,9.396103916651899368e+00,5.145542866114474201e+00,-8.262751713508109663e-02,-1.316815291828653534e-01,-9.878424308988523750e-01,3.272754301319818069e+02
3.318041544310717406e+00,9.081292242088753852e+00,5.266336588611808089e+00,-9.723622475135715315e-02,-1.535427145177256647e-01,-9.833462012000817598e-01,3.291052850726249517e+02
3.408053916019720297e+00,8.738837627712545242e+00,5.376327329080201167e+00,-1.120191958959426970e-01,-1.756588152957197224e-01,-9.780570946318678516e-01,3.309351400132680965e+02
3.448375452100214122e+00,8.594935208025306750e+00,5.417595476392481402e+00,-1.269458018550970180e-01,-1.979837250316433261e-01,-9.719502086084251813e-01,3.316728252386034796e+02
3.558740639643600989e+00,8.226827834486936553e+00,5.509645277497058125e+00,-1.419829103052791253e-01,-2.204676201219108733e-01,-9.650051200169995624e-01,3.335026801792466244e+02
3.686129131893039368e+00,7.842220371907894005e+00,5.582916340257821020e+00,-1.570951409983579461e-01,-2.430573477916293801e-01,-9.572064784356638656e-01,3.353325351198897692e+02
3.827099573465869486e+00,7.445110197668781460e+00,5.637277749558526452e+00,-1.722451866394139885e-01,-2.656969112986218295e-01,-9.485445413927201530e-01,3.371623900605329140e+02
3.976930611343284294e+00,7.039282272467821677e+00,5.673822589167234476e+00,-1.873941950020684422e-01,-2.883280462944700084e-01,-9.390156300081169416e-01,3.389922450011760588e+02
4.130965383769637178e+00,6.628544916341814641e+00,5.693629516794737278e+00,-2.025022054258800164e-01,-3.108908779048248916e-01,-9.286224845615261847e-01,3.408220999418192037e+02
4.284604307494453757e+00,6.216732318172731198e+00,5.697763637474483112e+00,-2.175286300201532963e-01,-3.333246438835588132e-01,-9.173745019900291231e-01,3.426519548824623485e+02
4.433297991065236587e+00,5.807707110478395940e+00,5.687277365969388931e+00,-2.324327673625714297e-01,-3.555684654234029241e-01,-9.052878409945773752e-01,3.444818098231054933e+02
4.572540263568138030e+00,5.405363010676324187e+00,5.663211278903700574e+00,-2.471743344310761981e-01,-3.775621441706527581e-01,-8.923853851827772132e-01,3.463116647637486381e+02
4.697861308417230042e+00,5.013627530127359400e+00,5.626594957309897893e+00,-2.617140011213384132e-01,-3.992469619580898410e-01,-8.786965602438054912e-01,3.481415197043917829e+02
4.804820891980975617e+00,4.636464752383024468e+00,5.578447820272946167e+00,-2.760139111136288292e-01,-4.205664589360619821e-01,-8.642570071973610935e-01,3.499713746450349277e+02
4.889001677007632551e+00,4.277878182177700772e+00,5.519779950346846320e+00,-2.900381731343202318e-01,-4.414671662520129325e-01,-8.491081198801031515e-01,3.518012295856780725e+02
4.946002610969509661e+00,3.941913666824310880e+00,5.451592911411676567e+00,-3.037533078093371808e-01,-4.618992712013750279e-01,-8.332964606060226931e-01,3.536310845263212173e+02
4.971432379589712625e+00,3.632662391789663658e+00,5.374880559633356647e+00,-3.171286372565560452e-01,-4.818171957349172696e-01,-8.168730729592817985e-01,3.554609394669643621e+02
4.960902915944694236e+00,3.354263952343715882e+00,5.290629848182772932e+00,-3.301366071713921491e-01,-5.011800731467704884e-01,-7.998927146098778751e-01,3.572907944076075069e+02
4.910022955651424326e+00,3.110909503295811618e+00,5.199821626365800142e+00,-3.427530342324150991e-01,-5.199521123934516265e-01,-7.824130356417001719e-01,3.591206493482506517e+02
4.814391628749767449e+00,2.906844988950573416e+00,5.103431433811336682e+00,-3.549572749682295414e-01,-5.381028444711821734e-01,-7.644937290253932538e-01,3.609505042888937965e+02
4.669592078978837435e+00,2.746374455536760184e+00,5.002430290360416976e+00,-3.667323155516091782e-01,-5.556072502597584339e-01,-7.461956795566061507e-01,3.627803592295369413e+02
4.471185101220830127e+00,2.633863448484462744e+00,4.897785482295891946e+00,-3.780647851056848086e-01,-5.724457739029191750e-01,-7.275801359325859696e-01,3.646102141701800861e+02
4.414268333750343665e+00,2.612491947643085677e+00,4.871263213951197990e+00,-3.889448978381412347e-01,-5.886042298669084127e-01,-7.087079278718854125e-01,3.650666738149714661e+02
4.156711414809381999e+00,2.554487715832407524e+00,4.762464486927933116e+00,-3.993663315293603522e-01,-6.040736151028527345e-01,-6.896387465748655687e-01,3.668965287556146109e+02
3.846119726059408439e+00,2.548100299346881314e+00,4.647970689956295587e+00,-4.093260515107041697e-01,-6.188498401194095777e-01,-6.704305026912464882e-01,3.687263836962577557e+02
3.486412311025275379e+00,2.592760031187309799e+00,4.526367567599471897e+00,-4.188240902559818291e-01,-6.329333942169036442e-01,-6.511387716196286313e-01,3.705562386369009005e+02
3.082769606609480295e+00,2.685889243681207628e+00,4.394136413452248036e+00,-4.278632930979202609e-01,-6.463289606830878720e-01,-6.318163316991123324e-01,3.723860935775440453e+02
2.780892131889376007e+00,2.773887384356112484e+00,4.292991448291464174e+00,-4.364490404365243270e-01,-6.590449975021012152e-01,-6.125127969026383790e-01,3.736645843703554419e+02
2.328072014867191175e+00,2.925258089626060709e+00,4.126174556715616504e+00,-4.445889562187838595e-01,-6.710932982202865160e-01,-5.932743421825268371e-01,3.754944393109985867e+02
2.161868462690442083e+00,2.985432484659980457e+00,4.060011944733718181e+00,-4.522926115448668294e-01,-6.824885462044352202e-01,-5.741435167636055326e-01,3.761461868018278096e+02
1.691299892876441335e+00,3.163465936230815956e+00,3.847398927862593077e+00,-2.712272280266627214e-02,-7.042966557259706661e-01,-7.093874672144858673e-01,3.779760417424709544e+02
1.227248631280313917e+00,3.346459615558317946e+00,3.580013295715740895e+00,4.034591077821900740e-01,-5.855722676019796680e-01,-7.030831158284734927e-01,3.798058966831140992e+02
7.936841921729267391e-01,3.515336314886894353e+00,3.245343701815633697e+00,5.805322544009815927e-02,-9.983134893489123973e-01,0.000000000000000000e+00,3.816357516237572440e+02
4.726384675236054433e-01,3.635677314831684548e+00,2.916127619992981757e+00,-0.000000000000000000e+00,-0.000000000000000000e+00,-1.000000000000000000e+00,3.831535093491473276e+02
1.553726625783165005e-01,3.751948555148355791e+00,2.467329017719527062e+00,8.948040391273959226e-01,-4.464591039081523549e-01,-9.941183397516288199e-06,3.849833642897904724e+02
-7.527028302681373906e-02,3.837143109273075225e+00,1.980464695416550791e+00,8.977905864051844986e-01,-4.346722246363473596e-01,7.093743787256295841e-02,3.868132192304336172e+02
-2.239073741702989062e-01,3.896692265370901520e+00,1.485066673171844265e+00,8.892047489601530019e-01,-4.259296012356099115e-01,1.670296058128184491e-01,3.886430741710767620e+02
-2.850935576402370275e-01,3.925743464736255905e+00,1.162278071665986845e+00,8.688962060242100272e-01,-4.108535068623777042e-01,2.760774874118129274e-01,3.898634944186700295e+02
-3.248017450054017652e-01,3.954489992674133703e+00,7.136871973837606298e-01,8.325726905898713781e-01,-3.874552258558616180e-01,3.958549770318992023e-01,3.916933493593131743e+02
-2.977189638048607367e-01,3.962390202062623601e+00,3.202725294272682488e-01,7.765421050757748134e-01,-3.541831217190061776e-01,5.210918108489750455e-01,3.935232042999563191e+02
-2.102136361256969066e-01,3.949054673017411865e+00,-1.591367605941426677e-02,6.994987185132593988e-01,-3.107922299010814626e-01,6.435135838748248238e-01,3.953530592405994639e+02
-6.856135840735452791e-02,3.914118258034053888e+00,-2.927728255018479109e-01,6.041108310005139925e-01,-2.590343575528779030e-01,7.536254411012386356e-01,3.971829141812426087e+02
1.210452563828707667e-01,3.857239243497510461e+00,-5.081582886733596593e-01,4.969825657254073881e-01,-2.024929299711430708e-01,8.438038532009040082e-01,3.990127691218857535e+02
3.524868603662374422e-01,3.778098591399973838e+00,-6.598736605800338273e-01,3.865453631623798070e-01,-1.454389063797308923e-01,9.107305895426658360e-01,4.008426240625288983e+02
6.185991919095472635e-01,3.676274045303348448e+00,-7.484410722792765869e-01,2.802816546814714815e-01,-9.146875517099792297e-02,9.555499258942382612e-01,4.026724790031720431e+02
9.100510429806675239e-01,3.551123683309257650e+00,-7.798717028780770555e-01,1.830634209326889583e-01,-4.277432236459512149e-02,9.821701182904470917e-01,4.045023339438151879e+02
1.013202586859987431e+00,3.503827724458536963e+00,-7.806520074333936909e-01,9.704995188563640685e-02,-1.869611885047947012e-04,9.952794943554849061e-01,4.051268758610943905e+02
1.320616991278702246e+00,3.352528224188024097e+00,-7.581780122285395329e-01,9.290377298257099237e-02,5.421043495963713543e-02,9.941982285777267725e-01,4.069567308017375353e+02
1.634612749926058983e+00,3.180839170810814132e+00,-6.931346620671637870e-01,8.825581084489923789e-02,1.111155809566914815e-01,9.898809218894797368e-01,4.087865857423806801e+02
1.950551421816328013e+00,2.992586988784697422e+00,-5.886707175873545639e-01,8.309707412895754597e-02,1.701085957684613514e-01,9.819154454009209054e-01,4.106164406830238249e+02
2.263905513894979737e+00,2.791511563969840459e+00,-4.485503337949429681e-01,7.743459602837052258e-02,2.306378389951677932e-01,9.699536435116691280e-01,4.124462956236669697e+02
2.570221329847116820e+00,2.581320094963121647e+00,-2.768324514078445708e-01,7.129417883666100408e-02,2.920309583604889792e-01,9.537479013990335375e-01,4.142761505643101145e+02
2.865082878161843816e+00,2.365741215092061367e+00,-7.755042688949806418e-02,6.472176464190658451e-02,3.535207979623616881e-01,9.331849434006599386e-01,4.161060055049532593e+02
3.144105024579714858e+00,2.148527610963291146e+00,1.452847017704125554e-01,5.778289936216639971e-02,4.142854953333072743e-01,9.083108855990540409e-01,4.179358604455964041e+02
3.402926729246589677e+00,1.933458702714840438e+00,3.876809673457781713e-01,5.056003691068403777e-02,4.734989538711802393e-01,8.793420400222476951e-01,4.197657153862395489e+02
3.637204358449919184e+00,1.724343387505115510e+00,6.456622411047928667e-01,4.314784301539340006e-02,5.303850982885834897e-01,8.466580839728211627e-01,4.215955703268826937e+02
3.842605060955982754e+00,1.525022847882341770e+00,9.152650133644530950e-01,3.564708931113127338e-02,5.842679312084131382e-01,8.107775709681943610e-01,4.234254252675258385e+02
4.014800199093333966e+00,1.339373426790599897e+00,1.192535184262310199e+00,2.815803480382964366e-02,6.346100364324158694e-01,7.723193813023431220e-01,4.252552802081689833e+02
4.015455295108600886e+00,1.338619490781350230e+00,1.193722791141295314e+00,2.077426842615128638e-02,6.810346862205239882e-01,7.319564098604989244e-01,4.252630382316040709e+02
4.150100417616687132e+00,1.170561455674788975e+00,1.474703664937119907e+00,1.357781697160750575e-02,7.233302435481653303e-01,6.903687432487346509e-01,4.270928931722472157e+02
4.243726132874326318e+00,1.026077278287746752e+00,1.756253330974772098e+00,6.635983739517382039e-03,7.614389337969358351e-01,6.482026795825472920e-01,4.289227481128903605e+02
4.294643599052970551e+00,9.152089082327512504e-01,2.036862969700827364e+00,-0.000000000000000000e+00,7.954343525492088007e-01,6.060397600691072029e-01,4.307526030535335053e+02
4.307407966266936228e+00,8.664681340285159683e-01,2.202392921392627656e+00,7.185340609416609808e-05,8.336982342105168087e-01,5.522202903836060939e-01,4.318357924756763850e+02
4.299011557538547912e+00,8.172718487176697799e-01,2.478710545263434373e+00,1.552039114416824063e-04,8.737064285138972375e-01,4.864535462767602403e-01,4.336656474163195298e+02
4.246244142629555185e+00,8.119603459043660543e-01,2.745729349734661984e+00,2.511588977257883160e-04,9.137892189346322747e-01,4.061886264754868692e-01,4.354955023569626746e+02
4.213520870860498313e+00,8.189210394190895581e-01,2.853276843424792375e+00,3.598735516731952190e-04,9.510493299780449217e-01,3.090389011748174153e-01,4.362545834827485010e+02
4.108558772612607157e+00,8.490096086116298846e-01,3.100775655286432730e+00,4.796525583194874930e-04,9.810795964440390815e-01,1.936042235454191185e-01,4.380844384233916458e+02
4.064891407283736768e+00,8.630379437953908939e-01,3.180199186773413622e+00,6.059799870214750564e-04,9.981536534668185023e-01,6.073645412022186940e-02,4.387007235040205728e+02
3.912137647406324525e+00,9.109507372132047420e-01,3.402063896709841551e+00,7.311558943463764048e-04,9.963659676046704439e-01,-8.517231950737905177e-02,4.405305784446637176e+02
3.720098603190237885e+00,9.670539510089994906e-01,3.597719909075492772e+00,8.454676493707990233e-04,9.717745855137807087e-01,-2.359098135601265522e-01,4.423604333853068624e+02
3.494489258028681711e+00,1.028537231532597795e+00,3.765294521532011718e+00,9.400575673993457173e-04,9.245150641547508208e-01,-3.811443459408873080e-01,4.441902883259500072e+02
3.244994370009538276e+00,1.097346329284319966e+00,3.903282996356602919e+00,1.009966622844755317e-03,8.592040512157353982e-01,-5.116320732146185657e-01,4.460201432665931520e+02
2.983321331588026482e+00,1.177762631838701557e+00,4.010351991074952771e+00,1.055235596925922824e-03,7.831100952465908094e-01,-6.218821955971326476e-01,4.478499982072362968e+02
2.721213905508211184e+00,1.274001359564663982e+00,4.085143127872306934e+00,1.079620617371963983e-03,7.034951890921461448e-01,-7.106992003256569213e-01,4.496798531478794416e+02
2.470470379453132637e+00,1.390214483206730689e+00,4.126271893724771544e+00,1.088355182399234223e-03,6.258388921117309378e-01,-7.799515988850579395e-01,4.515097080885225864e+02
2.242136679441772085e+00,1.528100262019246980e+00,4.135442732927510967e+00,1.086427337812867358e-03,5.534158468096103123e-01,-8.329043883757857314e-01,4.533395630291657312e+02
2.045643031620526298e+00,1.684510773206571166e+00,4.120580386895220215e+00,1.077801049459989249e-03,4.877065617979664536e-01,-8.730069575462179321e-01,4.551694179698088760e+02
1.954399561869405222e+00,1.772445702499526377e+00,4.107046873321811731e+00,1.065309812990342326e-03,4.290253040927120565e-01,-9.032918429628147283e-01,4.561388621933094782e+02
1.813002534709895919e+00,1.943711794825676797e+00,4.079277221982430923e+00,-3.381742658215645958e-02,2.200164382007879504e-01,-9.749098156141414728e-01,4.579687171339526230e+02
1.735042647180854658e+00,2.079217407568436204e+00,4.058256541629861047e+00,-6.700825643701949219e-02,-0.000000000000000000e+00,-9.977524209789072618e-01,4.593765039954787426e+02
1.672339018514938713e+00,2.258844879189323418e+00,4.034571338498635029e+00,-4.486293491829057220e-03,0.000000000000000000e+00,-9.999899365347159064e-01,4.612063589361218874e+02
1.666912528928173653e+00,2.284128080170733988e+00,4.031617154843349482e+00,5.805322569842741309e-02,0.000000000000000000e+00,-9.983134893338903026e-01,4.614607851308793443e+02
1.646391806761078103e+00,2.469597083114611902e+00,4.011353493209496968e+00,9.220375457886036130e-02,-2.190361376768050206e-01,-9.713504197935928230e-01,4.632906400715224891e+02
1.655646499362444679e+00,2.665299420669424713e+00,3.992911419051510702e+00,1.217560744469132483e-01,-4.271489298791252276e-01,-8.959460084393455759e-01,4.651204950121656339e+02
1.669292020233020146e+00,2.784469314189149891e+00,3.983177416263248283e+00,2.181652965535462729e-01,-4.188004615664152053e-01,-8.814817506740912911e-01,4.661822226255237069e+02
1.698705925851772269e+00,3.002352082381483100e+00,3.970050977065574749e+00,3.278448596882524990e-01,-4.040161044846697358e-01,-8.539840369076124871e-01,4.680120775661668517e+02
1.730273903475036290e+00,3.239947235719364826e+00,3.963370538138340837e+00,4.483832253246343158e-01,-3.805883227199932106e-01,-8.087675882827282114e-01,4.698419325068099965e+02
1.754782302072680267e+00,3.498797272047813323e+00,3.964558567413457801e+00,5.739353024552863447e-01,-3.467121299051925676e-01,-7.418820442443420093e-01,4.716717874474531413e+02
1.757887256607743476e+00,3.544057561738766182e+00,3.965497513937390472e+00,6.952409487921000775e-01,-3.020086921441775263e-01,-6.522505446467821155e-01,4.719783088819641534e+02
1.768646373584756848e+00,3.824685407540983295e+00,3.974706267885622868e+00,8.017882900821828862e-01,-2.483898189516779986e-01,-5.435421195530683036e-01,4.738081638226072982e+02
1.764919494731256755e+00,4.123646194167100987e+00,3.989116410682003622e+00,8.855640335480898795e-01,-1.898881191411046498e-01,-4.239325945183872180e-01,4.756380187632504430e+02
1.748174467591933734e+00,4.437099366651094279e+00,4.005224872991448137e+00,9.438142191100852285e-01,-1.312676805472314523e-01,-3.032878432271396973e-01,4.774678737038935878e+02
1.719807355783423253e+00,4.761206242167596692e+00,4.019529960517560951e+00,9.788504230296718456e-01,-7.640413273133164762e-02,-1.897742285880925639e-01,4.792977286445367326e+02
1.681144706475145911e+00,5.092127539703255934e+00,4.028528518706429473e+00,9.957276972847665109e-01,-2.750004107389194402e-02,-8.814817412125229568e-02,4.811275835851798774e+02
1.633445672866227660e+00,5.426020895273839351e+00,4.028713096267749094e+00,9.998910120809154645e-01,1.476360253469647180e-02,-0.000000000000000000e+00,4.829574385258230222e+02
1.577903994895491602e+00,5.759038361710446807e+00,4.016569105217711488e+00,9.998657937941316520e-01,1.292289674690842369e-02,1.006941607541160175e-02,4.847872934664661670e+02
1.515649841180374269e+00,6.087323892006963888e+00,3.988571975144343362e+00,9.997356927049543263e-01,1.107967619838000697e-02,2.014411842409589287e-02,4.866171484071093118e+02
1.447751514943190543e+00,6.407010805190515690e+00,3.941184299390787071e+00,9.995005845737626737e-01,9.234518193390465687e-03,3.022093827866411883e-02,4.884470033477524566e+02
1.375217026448842139e+00,6.714219233646257834e+00,3.870852970845411800e+00,9.991604442311513568e-01,7.388002594871567220e-03,4.029670087571171622e-02,4.902768582883956014e+02
1.298995534247917361e+00,7.005053550798001183e+00,3.774006305019334206e+00,9.987153457736924755e-01,5.540710914480491238e-03,5.036823045031538215e-02,4.921067132290387462e+02
1.219978657291627355e+00,7.275599778017007857e+00,3.647051148082440797e+00,9.981654624993310243e-01,3.693225397389264791e-03,6.043235523840414375e-02,4.939365681696818910e+02
1.142896204512144021e+00,7.523428504128919947e+00,3.488182814055707848e+00,9.975110665824634681e-01,1.846128105149372547e-03,7.048591246863168680e-02,4.957664231103250359e+02
1.080244414657870466e+00,7.749065631975230239e+00,3.299196470113483937e+00,9.967525284900820015e-01,-0.000000000000000000e+00,8.052575332543095155e-02,4.975962780509681807e+02
1.046736994331904036e+00,7.931693148293102347e+00,3.112208908752927439e+00,9.999996348736669427e-01,-4.741531567257568284e-04,7.109369287887504565e-04,4.992070561794806736e+02
1.039162807545309875e+00,8.123033768562066825e+00,2.881948491211430152e+00,9.967821727862723469e-01,-9.514219496121185775e-04,-8.015232255993393062e-02,5.010369111201238184e+02
1.063406979740270097e+00,8.298904313599582139e+00,2.638599252953655938e+00,9.870363393068619651e-01,-1.422459447950168761e-03,-1.604906274423155976e-01,5.028667660607669632e+02
1.114298880629338351e+00,8.462620519288183374e+00,2.390254556816821196e+00,9.710765471069080501e-01,-1.878279726158962014e-03,-2.387609928866002429e-01,5.046966210014101080e+02
1.186754935836634273e+00,8.617521663275438115e+00,2.145003720797236557e+00,9.749259865046610019e-01,-1.121876680979579655e-01,-1.921802486330371207e-01,5.065264759420532528e+02
