3.903253819423047055e+00,8.542544675632953721e-01,2.026484817753393841e+00,-1.676717950677013985e-02,4.457154716799075489e-01,8.950176422822876399e-01,3.776102888629085896e+01
3.824145375243702905e+00,7.505373972384855596e-01,2.178658648955419608e+00,-2.022013400363799687e-02,6.550830371614441150e-01,7.552862772513565526e-01,3.893755739424256035e+01
3.735654294945143228e+00,6.541103411671942425e-01,2.337810635292449479e+00,-2.304999082390233114e-02,9.051678761765982184e-01,4.244288089432247668e-01,4.011408590219426173e+01
3.639049263769992937e+00,5.678450497858854584e-01,2.501599134991050022e+00,-2.095453663581053200e-02,9.956846411370990912e-01,-9.040466137354129239e-02,4.129061441014596312e+01
3.535609788431795408e+00,4.946107658229229043e-01,2.667684149359004220e+00,-1.516509983330710347e-02,8.734440109928217622e-01,-4.866883801857378455e-01,4.246714291809766451e+01
3.426626749496817670e+00,4.372756765864526107e-01,2.833726493527381152e+00,-1.031826386708653565e-02,7.242876102592042953e-01,-6.894207648858425852e-01,4.364367142604936589e+01
3.313412238609481086e+00,3.986896337545739466e-01,2.997387870460060277e+00,-7.090946981033494773e-03,6.126117111918170099e-01,-7.903522061597261228e-01,4.482019993400106728e+01
3.197472647746182783e+00,3.813094547543454116e-01,3.156391250690424588e+00,-4.944749035393245645e-03,5.339927050802809605e-01,-8.454746243253081772e-01,4.599672844195276866e+01
3.080660852407412165e+00,3.868600879761546762e-01,3.308579467816855857e+00,-3.454715851388271211e-03,4.775439771441082337e-01,-8.786010555603570582e-01,4.717325694990447005e+01
2.965000752308317722e+00,4.167094665071640613e-01,3.451853245672924952e+00,-2.372962125008776929e-03,4.356430576553450562e-01,-9.001163787907955349e-01,4.834978545785617143e+01
2.889462846940889840e+00,4.487361547459506883e-01,3.541997693147757698e+00,-1.556961931310982695e-03,4.035341607625109184e-01,-9.149632544355214003e-01,4.913144001581481035e+01
2.779412098064109937e+00,5.164360414898837570e-01,3.668333373775200190e+00,-9.217112994850706117e-04,3.782418490908539543e-01,-9.257063541126916428e-01,5.030796852376651174e+01
2.676049634985965486e+00,6.100892269469299078e-01,3.780974193331213762e+00,-4.142102175454201885e-04,3.578506944733222950e-01,-9.337787258739924656e-01,5.148449703171821312e+01
2.581750813463633776e+00,7.251045638412986216e-01,3.880326482225220364e+00,0.000000000000000000e+00,3.410862924551649744e-01,-9.400319894020574552e-01,5.266102553966991451e+01
2.499211008591145422e+00,8.552003686799324322e-01,3.967662270521629786e+00,-1.554615174125191339e-03,3.518683479841235306e-01,-9.360482086188639528e-01,5.383755404762161589e+01
2.431562016399338777e+00,9.946843370645803706e-01,4.044310403253347452e+00,-3.114166784621011201e-03,3.626385223300885308e-01,-9.319246772607148177e-01,5.501408255557331728e+01
2.382145238465878112e+00,1.138148567953969792e+00,4.111626474639206386e+00,-4.678041840569512402e-03,3.733921426299275370e-01,-9.276618046178087829e-01,5.619061106352501866e+01
2.369485501169426911e+00,1.185875860795767123e+00,4.132363470819457874e+00,-6.245616364326521917e-03,3.841245131049557671e-01,-9.232601749821717219e-01,5.658062469012538998e+01
2.344729300346540590e+00,1.326749752611277033e+00,4.191055964749393681e+00,-7.816256554665536316e-03,3.948309246794690086e-01,-9.187205489430543270e-01,5.775715319807709136e+01
2.345926370065236632e+00,1.458915640911289779e+00,4.243560670913168131e+00,-9.389320000229345667e-03,4.055066647814620229e-01,-9.140438640939220205e-01,5.893368170602879275e+01
2.375439128302876846e+00,1.577105061104766337e+00,4.291039405963336328e+00,-1.096415693820740507e-02,4.161470272803833303e-01,-9.092312351367688450e-01,6.011021021398049413e+01
2.382802871120595967e+00,1.595270402495399642e+00,4.298519429194821662e+00,-1.254011155275853474e-02,4.267473225150380522e-01,-9.042839533733253443e-01,6.030512275789868681e+01
2.441957753650638718e+00,1.693678237291335931e+00,4.341692985596553811e+00,-1.411652330734027710e-02,4.373028873633849622e-01,-8.992034855767409018e-01,6.148165126585038820e+01
2.489758540288479871e+00,1.744023857501462826e+00,4.366386335297396393e+00,-1.569272830479353370e-02,4.478090953050182788e-01,-8.939914722414599169e-01,6.219733973872963162e+01
2.585622052778217661e+00,1.809749505753692755e+00,4.404367801990376030e+00,-1.726806066876777554e-02,4.582613664265896558e-01,-8.886497252132443680e-01,6.337386824668133301e+01
2.703541201900933721e+00,1.851250832563678950e+00,4.438085955678349848e+00,-1.884185393986234289e-02,4.686551773203213589e-01,-8.831802247055619004e-01,6.455039675463304150e+01
2.839126131735638658e+00,1.869583543384518931e+00,4.466816495275517163e+00,-2.041344247970592815e-02,4.789860708261076128e-01,-8.775851157128262692e-01,6.572692526258474288e+01
2.988000063114303995e+00,1.865818219217564300e+00,4.489833352167557301e+00,-2.198216287610170461e-02,4.892496655684778206e-01,-8.718667038351798348e-01,6.690345377053644427e+01
3.145797449316177552e+00,1.841040809257476152e+00,4.506408432906573225e+00,-2.354735534233116587e-02,4.994416652409186530e-01,-8.660274505336190698e-01,6.807998227848814565e+01
3.308162139189664064e+00,1.796353143003307506e+00,4.515811361188541539e+00,-2.510836510373632216e-02,5.095578675916931921e-01,-8.600699678382125457e-01,6.925651078643984704e+01
3.470745546993776021e+00,1.732873462063460712e+00,4.517309219021834465e+00,-2.666454376478736427e-02,5.195941730673483416e-01,-8.539970125359188646e-01,7.043303929439154842e+01
3.629204828255305770e+00,1.651736971897179496e+00,4.510166286995134222e+00,-2.821525064999005211e-02,5.295465930725339332e-01,-8.478114798680367326e-01,7.160956780234324981e+01
3.742869041230392657e+00,1.581492389814536104e+00,4.499469479384308634e+00,-2.975985411219250060e-02,5.394112578075510589e-01,-8.415163967705541204e-01,7.248668068901562833e+01
3.886081526472398018e+00,1.476062563878941303e+00,4.476994909756217389e+00,-3.129773280211142067e-02,5.491844236481571162e-01,-8.351149146935941125e-01,7.366320919696732972e+01
3.980956438439075207e+00,1.394360616484197513e+00,4.454818654400208189e+00,-3.282827689321089065e-02,5.588624800355522781e-01,-8.286103020387416418e-01,7.450253361717724943e+01
4.102521420061053803e+00,1.275811396920129015e+00,4.413308308699338767e+00,-3.435088925642709734e-02,5.684419558481139667e-01,-8.220059362552458726e-01,7.567906212512895081e+01
4.209154332969936796e+00,1.158628392024764642e+00,4.355925757148360056e+00,-3.586498657963693021e-02,5.779195252302863350e-01,-8.153052956379240879e-01,7.685559063308065220e+01
4.300791879204036938e+00,1.049751594599048987e+00,4.281272299858816410e+00,-3.737000042721001780e-02,5.872920128580245702e-01,-8.085119508710061353e-01,7.803211914103235358e+01
4.362133842685800289e+00,9.717003001163800890e-01,4.212785638752660766e+00,-3.886537823545932469e-02,5.965563986242953254e-01,-8.016295563631780086e-01,7.894964238797032863e+01
4.425661707023572866e+00,8.797349738842460409e-01,4.114454502879996589e+00,-4.035058424030640162e-02,6.057098217322965938e-01,-7.946618414196665592e-01,8.012617089592203001e+01
4.468605102335607704e+00,7.958511597651052316e-01,4.005754633989446312e+00,-3.702618443609820287e-02,7.114803305315227089e-01,-7.017298632186457219e-01,8.130269940387373140e+01
4.489773695350306681e+00,7.182704022861732263e-01,3.889719526121433901e+00,-3.251597242076862543e-02,8.116054340268082923e-01,-5.833003780177825615e-01,8.247922791182543278e+01
4.488630734935502353e+00,6.460331962944714235e-01,3.769219996456718125e+00,-2.691981103809592407e-02,8.959207137349451955e-01,-4.433975625489383066e-01,8.365575641977713417e+01
4.464624889975761235e+00,5.781862407953468619e-01,3.647125280057440300e+00,-2.060453588571053291e-02,9.563031009390087211e-01,-2.916501881284674913e-01,8.483228492772883556e+01
4.438354840717599004e+00,5.359804043182012645e-01,3.568349565767836573e+00,-1.409841403009409917e-02,9.900021428789065325e-01,-1.403459718588644656e-01,8.559378341317835748e+01
4.380709806929932171e+00,4.726216861454826668e-01,3.449392326239988371e+00,-7.895388202740294750e-03,9.999688309368087724e-01,0.000000000000000000e+00,8.677031192113005886e+01
4.299474426085361678e+00,4.115944133803811633e-01,3.335864223268814932e+00,-3.336325892888753180e-03,9.994607083580859808e-01,-3.266743604706904419e-02,8.794684042908176025e+01
4.196444976268663751e+00,3.532934120286685964e-01,3.228894284173392304e+00,1.410999204072687155e-03,9.977775227330267782e-01,-6.661849750625048472e-02,8.912336893703346163e+01
4.074209899838169946e+00,2.985474477687918293e-01,3.129032967920923447e+00,6.340683038559834749e-03,9.947843503732350934e-01,-1.018032022635106115e-01,9.029989744498516302e+01
3.935353329425358648e+00,2.481711452490190650e-01,3.036833252625952273e+00,1.144356559898971649e-02,9.903454586566262652e-01,-1.381481716295158979e-01,9.147642595293686441e+01
3.782456152024156637e+00,2.029654430711638757e-01,2.952850831515491326e+00,1.670690020732745751e-02,9.843279480709514750e-01,-1.755544648588943379e-01,9.265295446088856579e+01
3.618097073888516757e+00,1.637180349732350881e-01,2.877644309856268734e+00,2.211410731967555082e-02,9.766060834912595467e-01,-2.138960587418962389e-01,9.382948296884026718e+01
3.444853686637149082e+00,1.312037974388259032e-01,2.811775402913939459e+00,2.764464985831459679e-02,9.670662034318204814e-01,-2.530192315105236900e-01,9.500601147679196856e+01
3.265303534965881660e+00,1.061852039512033441e-01,2.755809135014402500e+00,3.327406643912397127e-02,9.556120099232979781e-01,-2.927431006752498344e-01,9.618253998474366995e+01
3.082025186369837577e+00,8.941272610039537050e-02,2.710314039777745876e+00,3.897419353607069203e-02,9.421699527890099457e-01,-3.328615212062931983e-01,9.735906849269537133e+01
2.897599303279644989e+00,8.162522174211221671e-02,2.675862361595811478e+00,4.471359692147587606e-02,9.266943437378496462e-01,-3.731464692779767889e-01,9.853559700064707272e+01
2.714609718017523043e+00,8.355031039791530056e-02,2.653030258424742716e+00,5.045821673020696452e-02,9.091717838612665137e-01,-4.133529191803659297e-01,9.971212550859877410e+01
2.535644510981311051e+00,9.590473607733071559e-02,2.642398005964361030e+00,5.617221040468652754e-02,8.896244785994332771e-01,-4.532250763747943667e-01,1.008886540165504755e+02
2.363297092467518290e+00,1.193947176935248183e-01,2.644550203296752500e+00,6.181895593236026026e-02,8.681120586031844111e-01,-4.925036755143805678e-01,1.020651825245021769e+02
2.200167288546557298e+00,1.547162872338428974e-01,2.660075980056963996e+00,6.736215744203501166e-02,8.447316264572207745e-01,-5.309339120904719156e-01,1.032417110324538783e+02
2.048861729448753444e+00,2.021361754716174408e-01,2.689569205374751526e+00,7.276697995231511118e-02,8.196159001691706303e-01,-5.682734753782721082e-01,1.044182395404055796e+02
1.964572125114372181e+00,2.350640786961041007e-01,2.712863618444955716e+00,7.800113293825397531e-02,7.929295056365307515e-01,-6.043001095079792995e-01,1.051165630097782469e+02
1.833937808791537671e+00,2.977996616107060901e-01,2.762340975371226470e+00,8.303582516259568058e-02,7.648636547504821248e-01,-6.388181598712596720e-01,1.062930915177299482e+02
1.721909088268939847e+00,3.704360374885828366e-01,2.827344579213790787e+00,8.784652581419534478e-02,7.356296037542113808e-01,-6.716636613535065248e-01,1.074696200256816496e+02
1.631101756773633671e+00,4.519431911924847167e-01,2.908485826816183284e+00,9.241348740563741504e-02,7.054513928289748437e-01,-7.027076772749729638e-01,1.086461485336333510e+02
1.564321206974291334e+00,5.436506840978828636e-01,3.005020467740421530e+00,9.672201065657949626e-02,6.745584078750154200e-01,-7.318577778637544995e-01,1.098226770415850524e+02
1.523677320970453719e+00,6.492435223421001433e-01,3.113913425184322570e+00,1.007624566780680464e-01,6.431782776037453520e-01,-7.590577254352134373e-01,1.109992055495367538e+02
1.509320169057355887e+00,7.700252032310668238e-01,3.231625537357256661e+00,1.045300334637867257e-01,6.115305343912280645e-01,-7.842855842174065728e-01,1.121757340574884552e+02
1.509650807264163674e+00,8.236685452678681463e-01,3.282142524588542276e+00,1.080243993631114091e-01,5.798213455291770790e-01,-8.075505782370375751e-01,1.126637691083845567e+02
1.524940347778485528e+00,9.607938058896573486e-01,3.405793676066518838e+00,1.112491346909285361e-01,5.482394854258229033e-01,-8.288890737912694151e-01,1.138402976163362581e+02
1.563973494974510992e+00,1.109199372171462805e+00,3.530949545457700456e+00,1.142111341631341648e-01,5.169535898509691751e-01,-8.483600667012601848e-01,1.150168261242879595e+02
1.624779710397504351e+00,1.263665052046806236e+00,3.655259051261602998e+00,1.169199687273004967e-01,4.861106258003101144e-01,-8.660405189116949787e-01,1.161933546322396609e+02
1.704825457090920482e+00,1.417416158213611999e+00,3.776885636208291874e+00,1.193872574269844167e-01,4.558354332330805669e-01,-8.820208277434681277e-01,1.173698831401913623e+02
1.802014174306674876e+00,1.564776703290431614e+00,3.894267240337792035e+00,1.216260801085629617e-01,4.262311494545779622e-01,-8.964006380363941373e-01,1.185464116481430636e+02
1.915389051422997424e+00,1.702490279853799082e+00,4.006047617134791849e+00,6.272313656334800591e-02,2.188556523625597994e-01,-9.737391907326180540e-01,1.197229401560947650e+02
2.044565448516802331e+00,1.828515638167832247e+00,4.110964378252004003e+00,5.300273656876602468e-04,0.000000000000000000e+00,-9.999998595354860909e-01,1.208994686640464664e+02
2.188813523273856809e+00,1.940880707397622418e+00,4.208336170179714841e+00,9.303609119956803841e-01,-2.358487803966914133e-03,-3.666374380308758951e-01,1.220759971719981678e+02
2.245281824088891209e+00,1.979361098068531222e+00,4.242814227112731373e+00,-6.700825643701949219e-02,-0.000000000000000000e+00,-9.977524209789072618e-01,1.225117205260500555e+02
2.404779515436318071e+00,2.073605671525526439e+00,4.332361634809456241e+00,-1.403464077947989275e-01,-4.257102307760083360e-01,-8.939092153187222500e-01,1.236882490340017569e+02
2.575354278525471052e+00,2.150947133812895817e+00,4.416030337043233445e+00,-7.236620636164423082e-02,-2.039064574164787813e-01,-9.763120857598176494e-01,1.248647775419534582e+02
2.754776285216519405e+00,2.212608019873904208e+00,4.494081339736273328e+00,0.000000000000000000e+00,3.025577441558382347e-02,-9.995421892619207327e-01,1.260413060499051596e+02
2.904097967266346281e+00,2.253128505314986985e+00,4.553241327760141566e+00,1.330728339179864073e-06,2.647512829571476572e-02,-9.996494723551624384e-01,1.269903797794990794e+02
3.092970543945590123e+00,2.294015901520057188e+00,4.621557223812027715e+00,2.661551879715945381e-06,2.269377884700614703e-02,-9.997424630346354313e-01,1.281669082874507808e+02
3.284642583796026027e+00,2.325672732490085881e+00,4.683397749551673428e+00,3.992413505634577876e-06,1.891188826362904044e-02,-9.998211542402795082e-01,1.293434367954024822e+02
3.477103130899692029e+00,2.350452812358488242e+00,4.738291689942179197e+00,5.323256086250068345e-06,1.512961883729170218e-02,-9.998855407522909688e-01,1.305199653033541836e+02
3.668353388649630453e+00,2.370718734379583026e+00,4.785765368194946134e+00,6.654022488424887391e-06,1.134713292242388490e-02,-9.999356191926381809e-01,1.316964938113058849e+02
3.856405889749902283e+00,2.388843050859617012e+00,4.825342477907579308e+00,7.984655588832495547e-06,7.564592901333734402e-03,-9.999713880259186727e-01,1.328730223192575863e+02
4.039283677085842683e+00,2.407209463437763652e+00,4.856543914270051943e+00,9.315098286216652289e-06,3.782161149354710920e-03,-9.999928475595559751e-01,1.340495508272092877e+02
4.215019495158598417e+00,2.428214024281794892e+00,4.878887604279421808e+00,1.064529351364108455e-05,0.000000000000000000e+00,-9.999999999433388798e-01,1.352260793351609891e+02
4.381654991785310926e+00,2.454266348770878903e+00,4.891888335902649487e+00,-1.697723443252997181e-11,0.000000000000000000e+00,-1.000000000000000000e+00,1.364026078431126905e+02
4.537239929773009273e+00,2.487790840246339563e+00,4.895057586126648097e+00,-1.064532746810994453e-05,0.000000000000000000e+00,-9.999999999433386577e-01,1.375791363510643919e+02
4.597703042071783486e+00,2.503551664530944798e+00,4.893939720172070906e+00,-2.129063795536638798e-05,-0.000000000000000000e+00,-9.999999997733544088e-01,1.380582855337793831e+02
4.737667842787280925e+00,2.549139521079986981e+00,4.884933189113522367e+00,1.984626377140018619e-03,3.715174237568774889e-04,-9.999979616143960248e-01,1.392348140417310844e+02
4.826558775810370072e+00,2.587061424750182415e+00,4.873149848792100336e+00,3.990535107475306348e-03,7.430332966762309308e-04,-9.999917617316034235e-01,1.400472132660931663e+02
4.942995628177349943e+00,2.652537263998183015e+00,4.847723829727767608e+00,-1.741718878752641919e-02,0.000000000000000000e+00,-9.998483092623299262e-01,1.412237417740448677e+02
5.042507375279058124e+00,2.732634242386006829e+00,4.810848981780739386e+00,-6.988247735890973367e-02,7.682206869001597044e-04,-9.975549354271961988e-01,1.424002702819965691e+02
5.125471601263782873e+00,2.826932743903181944e+00,4.762462094568393312e+00,-1.274869209814778748e-01,1.612506310702015210e-03,-9.918389409586924055e-01,1.435767987899482705e+02
5.192701518065669042e+00,2.934523730078786308e+00,4.702726524835332711e+00,-1.903524044127200554e-01,2.534891964362790198e-03,-9.817125528671949430e-01,1.447533272978999719e+02
5.245019014955550674e+00,3.054533575789066369e+00,4.632130375161564118e+00,-2.583503432666544031e-01,3.533784538038121752e-03,-9.660448294467709474e-01,1.459298558058516733e+02
5.283275380888833972e+00,3.186156872450162325e+00,4.551367668777526632e+00,-3.309925199607050561e-01,4.602350087015897803e-03,-9.436221543095195674e-01,1.471063843138033747e+02
5.308331886785222942e+00,3.328622450519268305e+00,4.461159083163251715e+00,-4.073257094651131505e-01,5.726942306573020065e-03,-9.132650045526541360e-01,1.482829128217550760e+02
5.321040147227726003e+00,3.481159583665152102e+00,4.362221948347053235e+00,-4.858650808987819425e-01,6.886082551991171488e-03,-8.740066962159426245e-01,1.494594413297067774e+02
5.322242495304248422e+00,3.642997638525658832e+00,4.255270501113071369e+00,-5.646126479688399202e-01,8.050672861386430970e-03,-8.253167539921226759e-01,1.506359698376584788e+02
5.312772351629584833e+00,3.813365722227308741e+00,4.141016138112900258e+00,-6.412005557482742812e-01,9.186037007681835398e-03,-7.673183589828915796e-01,1.518124983456101802e+02
5.293454587697776326e+00,3.991492327515201222e+00,4.020167667970685699e+00,-7.131637453310796237e-01,1.025587576045430653e-02,-7.009224560232986123e-01,1.529890268535618816e+02
5.265105883711775014e+00,4.176604975339269110e+00,3.893431562471362462e+00,-7.782889342888461570e-01,1.122737849224868592e-02,-6.278059260119515095e-01,1.541655553615135830e+02
5.228535081034284104e+00,4.367929854741136708e+00,3.761512206921040491e+00,-8.349382293150576784e-01,1.207600914006084873e-02,-5.502111624017504976e-01,1.553420838694652844e+02
5.184543529400581718e+00,4.564691459883514213e+00,3.625112149768021208e+00,-8.822438607454939907e-01,1.278843879437384541e-02,-4.706189817783467122e-01,1.565186123774169857e+02
5.133925429030922416e+00,4.766112224061455294e+00,3.484932351572867848e+00,-9.201239255619004798e-01,1.336286507933873852e-02,-3.913992788003442524e-01,1.576951408853686871e+02
5.077468167777110963e+00,4.971412150532426466e+00,3.341672433415784571e+00,-9.491435651355411007e-01,1.380704989750981652e-02,-3.145407098213560682e-01,1.588716693933203885e+02
5.015952653434822217e+00,5.179808439999655789e+00,3.196030924829321052e+00,-9.702950777959385986e-01,1.413513774074620470e-02,-2.415112003324562384e-01,1.600481979012720899e+02
4.950153641350354405e+00,5.390515114580678890e+00,3.048705511344268704e+00,-9.847742855491973257e-01,1.436438735186459058e-02,-1.732433863011042796e-01,1.612247264092237913e+02
4.880840057447531244e+00,5.602742638090338900e+00,2.900393281736489026e+00,-9.938029949916669104e-01,1.451255632724967465e-02,-1.102043232112123461e-01,1.624012549171754927e+02
4.808775316797564869e+00,5.815697532464739083e+00,2.751790975062271105e+00,-9.985140949158416435e-01,1.459619256925114537e-02,-5.250288960503947389e-02,1.635777834251271941e+02
4.734717637851934668e+00,6.028581990149924685e+00,2.603595227569718062e+00,-9.998929794933587578e-01,1.462974913980168157e-02,0.000000000000000000e+00,1.647543119330788954e+02
4.659420352455521552e+00,6.240593482276202586e+00,2.456502819573714635e+00,-9.956857315474598735e-01,9.204772608725839134e-02,-1.171068379577490208e-02,1.659308404410305968e+02
4.583632211754531838e+00,6.450924362435943138e+00,2.311210922381952582e+00,-9.849021863557947398e-01,1.714762531022253345e-01,-2.373979641018067813e-02,1.671073689489822982e+02
4.508097688111040391e+00,6.658761465879813102e+00,2.168417345359534565e+00,-9.672241686897380397e-01,2.513797110010081992e-01,-3.585593952882597940e-02,1.682838974569339996e+02
4.433557273133292398e+00,6.863285703943251548e+00,2.028820783219729140e+00,-9.427354428633347716e-01,3.300973911227531032e-01,-4.780791925219391586e-02,1.694604259648857010e+02
4.362922559326488425e+00,7.057667191895831138e+00,1.897153815314084113e+00,-9.119405468321346575e-01,4.060074839343024156e-01,-5.934949058622406709e-02,1.706008868975869177e+02
4.292448872178901809e+00,7.253380036321566138e+00,1.765779525799769045e+00,-8.757140925378374963e-01,4.776900502527258174e-01,-7.026410193107104907e-02,1.717774154055386191e+02
4.225148699870925562e+00,7.443306028370748173e+00,1.639685933174888532e+00,-8.351919860094663139e-01,5.440521584196161831e-01,-8.038404956532353707e-02,1.729539439134903205e+02
4.161491149392309019e+00,7.626496217766527863e+00,1.519771055211950994e+00,-8.412725748665467185e-01,5.371922370378094946e-01,6.070383219966098143e-02,1.741304724214420219e+02
4.101425145382570747e+00,7.801791101705083165e+00,1.407321909636520374e+00,-8.249993642906474633e-01,5.132874312278761231e-01,2.364573150983405314e-01,1.753070009293937233e+02
4.044636778173515523e+00,7.967925544949000738e+00,1.303821565050847120e+00,-7.704870988119516539e-01,4.627528307968526433e-01,4.384169797736413021e-01,1.764835294373454246e+02
3.990807228175839327e+00,8.123631514131123055e+00,1.210756261334146489e+00,-6.676841824117518698e-01,3.811871281185450488e-01,6.394483606311663904e-01,1.776600579452971260e+02
3.939612610022518613e+00,8.267637436380153915e+00,1.129615936337687865e+00,-5.263992753523804025e-01,2.776516980365155152e-01,8.036251224830693873e-01,1.788365864532488274e+02
3.890723811294679368e+00,8.398667557045810028e+00,1.061894753890295862e+00,-3.737605912645658446e-01,1.710958099442899949e-01,9.116080540654900588e-01,1.800131149612005288e+02
3.843806325756138786e+00,8.515441296216742728e+00,1.009091633301450130e+00,-2.340890531198453750e-01,7.674174789650063666e-02,9.691816235047195915e-01,1.811896434691522302e+02
3.798520081016081740e+00,8.616672603725364255e+00,9.727107805496042481e-01,-1.177652196089313680e-01,0.000000000000000000e+00,9.930414659270077049e-01,1.823661719771039316e+02
3.789926147178726445e+00,8.634593153917041519e+00,9.674110321175534155e-01,-5.898531350817875357e-02,0.000000000000000000e+00,9.982588505945448887e-01,1.825933103261654367e+02
3.745987423550134032e+00,8.718235438552571992e+00,9.497921553152665064e-01,0.000000000000000000e+00,0.000000000000000000e+00,1.000000000000000000e+00,1.837698388341171380e+02
3.704492723196423309e+00,8.784284187861528537e+00,9.518953752382933731e-01,-5.095691526922463410e-02,0.000000000000000000e+00,9.987008525010103721e-01,1.849463673420688394e+02
3.669087526675356425e+00,8.833441481283022867e+00,9.744394418884274600e-01,-1.058811096150800851e-01,0.000000000000000000e+00,9.943787963480915648e-01,1.861228958500205408e+02
3.643577438049709905e+00,8.866432208365466749e+00,1.016643187430384287e+00,-1.646933313934018650e-01,0.000000000000000000e+00,9.863448213452246094e-01,1.872994243579722422e+02
3.632272456467587229e+00,8.881049825719864899e+00,1.055121005839102288e+00,-2.271280546715665205e-01,0.000000000000000000e+00,9.738649017092206872e-01,1.881097966115208351e+02
3.625984225908395864e+00,8.890856201739026687e+00,1.123077214455991957e+00,-2.926878788320700919e-01,0.000000000000000000e+00,9.562080346790564622e-01,1.892863251194725365e+02
3.631893418720747224e+00,8.886030679109046204e+00,1.205464794387212990e+00,-3.606106788454093715e-01,0.000000000000000000e+00,9.327164297377059654e-01,1.904628536274242379e+02
3.647781284289866921e+00,8.868259419144067124e+00,1.299613202259052525e+00,-4.298631898534169271e-01,0.000000000000000000e+00,9.028940347621339235e-01,1.916393821353759392e+02
3.671805738267451602e+00,8.839577262918570710e+00,1.402850531228734710e+00,-4.991743325433909972e-01,0.000000000000000000e+00,8.665015786078292814e-01,1.928159106433276406e+02
3.702138474783495337e+00,8.802024637113390781e+00,1.512508095383538587e+00,-5.671154763636424567e-01,0.000000000000000000e+00,8.236382922550643526e-01,1.939924391512793420e+02
3.736964194845382448e+00,8.757648553033192229e+00,1.625919484009872962e+00,-6.322226752076429701e-01,0.000000000000000000e+00,7.747867377241889342e-01,1.951689676592310434e+02
3.774495976827495269e+00,8.708518827559439401e+00,1.740419371034239715e+00,-6.931411316899778186e-01,0.000000000000000000e+00,7.208018948085088695e-01,1.963454961671827448e+02
3.812990765791401060e+00,8.656744187259299395e+00,1.853342324848947342e+00,-7.487614859183669980e-01,0.000000000000000000e+00,6.628395259829631403e-01,1.975220246751344462e+02
3.850732674348273932e+00,8.604457902714273132e+00,1.962022109368045664e+00,-7.983173326073550458e-01,0.000000000000000000e+00,6.022370268081146394e-01,1.986985531830861476e+02
3.886016198405526811e+00,8.553803572870112504e+00,2.063790984795458971e+00,-8.414248904134504770e-01,0.000000000000000000e+00,5.403740868997263247e-01,1.998750816910378489e+02
3.917247956927730534e+00,8.506913824181570050e+00,2.155935019714649403e+00,-8.780636032190171081e-01,0.000000000000000000e+00,4.785439464689072997e-01,2.010516101989895503e+02
3.943276824341207742e+00,8.465843567801048408e+00,2.235585026118956709e+00,-9.085121798099751178e-01,0.000000000000000000e+00,4.178583721034285769e-01,2.022281387069412517e+02
3.963519012736754110e+00,8.432545660676057153e+00,2.299694924444708466e+00,-9.332621676788461773e-01,0.000000000000000000e+00,3.591959442691149973e-01,2.034046672148929531e+02
3.977626412556916957e+00,8.408935609435481240e+00,2.345148767304552795e+00,-9.529299392740386843e-01,0.000000000000000000e+00,3.031905850041802242e-01,2.045811957228446545e+02
3.985257837130036673e+00,8.396936193083615052e+00,2.368823995951972794e+00,-9.681813400672695247e-01,0.000000000000000000e+00,2.502496608300324166e-01,2.057577242307963559e+02
3.986809931042821553e+00,8.396414962350165823e+00,2.371107108361976135e+00,-9.796754793915599668e-01,0.000000000000000000e+00,2.005890203349053880e-01,2.067457267428371210e+02
3.982506277499660907e+00,8.408450011887881104e+00,2.351245722170027808e+00,-9.648317024668697783e-01,-7.673325336671176986e-03,2.627563624218441363e-01,2.079222552507888224e+02
3.970539637571191882e+00,8.435584324695931002e+00,2.305745441957423481e+00,-9.438621146685529650e-01,-1.608547242034740268e-02,3.299478232545590695e-01,2.090987837587405238e+02
3.950336111420504892e+00,8.477761018921887270e+00,2.236502226971939677e+00,-9.154648118265701351e-01,-2.520245593774482484e-02,4.016080359281279932e-01,2.102753122666922252e+02
3.937043519426772775e+00,8.504502053705923714e+00,2.193299433201775006e+00,-8.783869824131950166e-01,-3.492914396531632965e-02,4.766720717945320818e-01,2.108844484975016940e+02
3.905228790453867838e+00,8.564369019440862374e+00,2.098398926627440542e+00,-8.316335689614100524e-01,-4.509544080369376484e-02,5.534907480665131052e-01,2.120609770054533953e+02
3.863302790801746767e+00,8.635486399132121349e+00,1.988312569427215903e+00,-7.747297500113239366e-01,-5.545296722912205351e-02,6.298561604627498367e-01,2.132375055134050967e+02
3.810996739039526737e+00,8.715276089870661380e+00,1.867166604214337999e+00,-7.079742083804028141e-01,-6.568954792650524843e-02,7.031766517464534960e-01,2.144140340213567981e+02
3.748280834502225378e+00,8.801109740076890731e+00,1.738973807473527922e+00,-6.325849184134888503e-01,-7.546440280176693050e-02,7.708057115159255845e-01,2.155905625293084995e+02
3.675107548947091463e+00,8.890362441217430245e+00,1.607744458389259723e+00,-5.506466132905165622e-01,-8.445799122997335595e-02,8.304547880463343246e-01,2.167670910372602009e+02
3.591411619604652383e+00,8.980411445685124505e+00,1.477487760037019315e+00,-4.648378610973515901e-01,-9.242161425362220573e-02,8.805589180226353063e-01,2.179436195452119023e+02
3.497110028122831338e+00,9.068634885898916309e+00,1.352213260171882592e+00,-3.780152715022278564e-01,-9.920997314937136935e-02,9.204682698164006194e-01,2.191201480531636037e+02
3.392101965352836590e+00,9.152410494042616307e+00,1.235932272136506027e+00,-2.927956732769511072e-01,-1.047874363596994762e-01,9.504158494529953982e-01,2.202966765611153050e+02
3.276268781958782128e+00,9.229114321853604253e+00,1.132659296394052051e+00,-2.112611208328795676e-01,-1.092106477790096841e-01,9.713093087354430777e-01,2.214732050690670064e+02
3.149473924841961203e+00,9.296119459892072001e+00,1.046413443190392645e+00,-1.348374522614194937e-01,-1.125983130457440251e-01,9.844493289991628204e-01,2.226497335770187078e+02
3.011943976198982131e+00,9.351916193570522395e+00,9.812179517496860681e-01,-6.432211720033677305e-02,-1.150998866755112982e-01,9.912692274685777072e-01,2.238262620849704092e+02
2.864508697718458841e+00,9.395600944955255329e+00,9.403264919870895078e-01,0.000000000000000000e+00,-1.168706797253571267e-01,9.931471412739065752e-01,2.250027905929221106e+02
2.746261880946541112e+00,9.420305494197329210e+00,9.247577746881259220e-01,7.187059699772369026e-02,-1.851298575950732495e-01,9.800824215921937199e-01,2.259022212684526210e+02
2.585008706220770058e+00,9.437107512744461246e+00,9.257559448469661056e-01,1.595675136943077443e-01,-2.668087668822533010e-01,9.504479420190188321e-01,2.270787497764043223e+02
2.485691530494285928e+00,9.438605921080599259e+00,9.374580070253696329e-01,2.633967877289583592e-01,-3.610661034094013178e-01,8.945688353518792546e-01,2.277803792399676581e+02
2.315616145097481926e+00,9.428865766306984142e+00,9.756876073987461595e-01,3.788531347949299910e-01,-4.622663423102136848e-01,8.017356989826454061e-01,2.289569077479193595e+02
2.142705491742644686e+00,9.403704934643032587e+00,1.040094589016385962e+00,4.942251149177387393e-01,-5.583718921903948473e-01,6.663050095836486886e-01,2.301334362558710609e+02
1.970430284578471802e+00,9.366319848652272739e+00,1.128669344202571256e+00,5.930701347934710377e-01,-6.343116929084354760e-01,4.958996788219253160e-01,2.313099647638227623e+02
1.802277459881637123e+00,9.319878892309116480e+00,1.239410829869064701e+00,6.629929763215776095e-01,-6.805628532572732814e-01,3.118886277416588193e-01,2.324864932717744637e+02
1.641751569690437895e+00,9.267523986163178407e+00,1.370325858381139961e+00,7.023914194238702891e-01,-6.983331197532173240e-01,1.377575688499897422e-01,2.336630217797261651e+02
1.492371207821533874e+00,9.212370246391417439e+00,1.519422895112326755e+00,7.180537944641383064e-01,-6.958777994037453896e-01,-1.236270814399175952e-02,2.348395502876778664e+02
1.357665437137018039e+00,9.157505662131084634e+00,1.684705856577257466e+00,7.187059520573283455e-01,-6.820749571843631731e-01,-1.350389101678418635e-01,2.360160787956295678e+02
1.241180189144452939e+00,9.105994557258684452e+00,1.864178899116646804e+00,7.112043967090111440e-01,-6.632686733194039785e-01,-2.329441415766644874e-01,2.371926073035812692e+02
1.146876730828066959e+00,9.060529442336836325e+00,2.055963584243583941e+00,7.795275017125292694e-01,-5.731218909380806359e-01,-2.527215309414326261e-01,2.383691358115329706e+02
1.106456571983232662e+00,9.039544928466774820e+00,2.158405855091523939e+00,8.407834679498529251e-01,-4.692006662547723583e-01,-2.700627608692030557e-01,2.389753273865044889e+02
1.046064317625440498e+00,9.004387979023594113e+00,2.362373386205037118e+00,8.908831552406064613e-01,-3.547038598004302323e-01,-2.837470273874568849e-01,2.401518558944561903e+02
1.015358035023684158e+00,8.978486251358617665e+00,2.572491803800013521e+00,9.269008696384679613e-01,-2.346003348829353852e-01,-2.929461737866982385e-01,2.413283844024078917e+02
1.015251552780445543e+00,8.962420363974311854e+00,2.785694469038548338e+00,9.478333772841508464e-01,-1.146243798257451096e-01,-2.974443485018397615e-01,2.425049129103595931e+02
1.044851950831508391e+00,8.956346998274364424e+00,2.998708235729746541e+00,9.546779411463374165e-01,0.000000000000000000e+00,-2.976407712135392125e-01,2.436814414183112945e+02
1.102368438034657450e+00,8.960222845327855623e+00,3.208156090563748730e+00,9.405813308766770575e-01,-4.711561415641456890e-02,-3.362839260341219938e-01,2.448579699262629958e+02
1.186022296021560063e+00,8.974020930089542603e+00,3.410659756532812281e+00,9.225686870451946797e-01,-9.461107935984780504e-02,-3.740531531026975998e-01,2.460344984342146972e+02
1.294046180207954144e+00,8.997730525000259050e+00,3.602838495732716417e+00,9.007644989176198935e-01,-1.419166172459481179e-01,-4.104667967560301500e-01,2.472110269421663986e+02
1.424683425380073087e+00,9.031357076480512447e+00,3.781307911293401602e+00,8.754313904309957151e-01,-1.884624495364412566e-01,-4.450862677760096808e-01,2.483875554501181000e+02
1.465723059874544987e+00,9.042587479710920917e+00,3.830313339461044908e+00,8.469545333967970491e-01,-2.337126144865030175e-01,-4.775420737364376444e-01,2.487266561110660064e+02
1.619090533799141030e+00,9.085377310980526033e+00,3.989671969226531001e+00,8.263335259067741134e-01,-2.489979133285476209e-01,-5.051464570998273063e-01,2.499031846190177077e+02
1.791423220374520620e+00,9.131908854154765720e+00,4.128439818620055490e+00,7.971624305311348913e-01,-2.687312882657267865e-01,-5.406621440943841783e-01,2.510797131269694091e+02
1.979160681764886354e+00,9.175848458881507241e+00,4.246174595248172423e+00,7.535745048097745036e-01,-2.948902034956099039e-01,-5.875076455528223107e-01,2.522562416349211105e+02
2.177636809839511578e+00,9.210818118362084306e+00,4.343460050155865559e+00,6.838208633607850695e-01,-3.303847662070487634e-01,-6.505650875130207789e-01,2.534327701428728119e+02
2.382158316421836286e+00,9.230464067371599413e+00,4.420872687590978956e+00,5.628371325827282723e-01,-3.785134269052247702e-01,-7.348074222805015543e-01,2.546092986508245133e+02
2.588002787642213143e+00,9.228453587973012517e+00,4.478981969246108363e+00,3.384764880857564218e-01,-4.369402131917121679e-01,-8.333768157977000657e-01,2.557858271587762147e+02
2.790437402708681347e+00,9.198692134656521802e+00,4.518370447073060348e+00,-5.461698756082085382e-02,-4.718819740364857962e-01,-8.799684012788245857e-01,2.569623556667279445e+02
2.984869610866304868e+00,9.136763368020261566e+00,4.539765047593313341e+00,-5.204712025864198788e-01,-4.128967441809569539e-01,-7.474128751386418523e-01,2.581388841746796743e+02
3.166965372483309782e+00,9.040928301595837269e+00,4.544128545356276305e+00,-8.118136486890829007e-01,-2.912934996906517138e-01,-5.060698537159573629e-01,2.593154126826314041e+02
3.332509096157905581e+00,8.910679543691106375e+00,4.532528826262041122e+00,-9.318762599225051124e-01,-1.892567294010259749e-01,-3.094972157698198667e-01,2.604919411905831339e+02
3.477658053598613908e+00,8.746134254280079290e+00,4.506098144895263502e+00,-9.766528197912960341e-01,-1.201399239086703569e-01,-1.780889336172500059e-01,2.616684696985348637e+02
3.599327493092524755e+00,8.548647747505794925e+00,4.466103551530753890e+00,-9.931653649747836932e-01,-7.372255558730644864e-02,-9.048504081991197434e-02,2.628449982064865935e+02
3.696083660714085006e+00,8.320872727744507813e+00,4.414031190229452228e+00,-9.987046483257250307e-01,-4.134327740382884309e-02,-2.966072868457200404e-02,2.640215267144383233e+02
3.729815081295996482e+00,8.220611589182519552e+00,4.390001825912923650e+00,-9.997374117907307234e-01,-1.778556609811289546e-02,1.444925965371876043e-02,2.645044203588768141e+02
3.799126734871661970e+00,7.963121731433060013e+00,4.326354752522245661e+00,-9.988630243651323015e-01,0.000000000000000000e+00,4.767240875119570925e-02,2.656809488668285439e+02
3.848026653365175687e+00,7.685929003392835135e+00,4.255160734158264013e+00,-9.993637164046824672e-01,-6.691058915540476276e-04,-3.566110810290706173e-02,2.668574773747802737e+02
3.878930053205554618e+00,7.393659115427095863e+00,4.178356487402422381e+00,-9.911172358985023134e-01,-1.447146323479273165e-03,-1.329831962032447801e-01,2.680340058827320036e+02
3.894267374625441924e+00,7.090914773420046835e+00,4.097876740664590400e+00,-9.696258650606971452e-01,-2.334709111742768600e-03,-2.445817469449804160e-01,2.692105343906837334e+02
3.896485238900923243e+00,6.782278021612601293e+00,4.015654919813754553e+00,-9.296306344897014018e-01,-3.313894664171276091e-03,-3.684778168634172402e-01,2.703870628986354632e+02
3.888047424313415767e+00,6.472312568544329459e+00,3.933623833347242638e+00,-8.664289728955528735e-01,-4.339636804270392487e-03,-4.992814862175087298e-01,2.715635914065871930e+02
3.871930672331091561e+00,6.165212318816028159e+00,3.852822280948216438e+00,-7.781634459494928269e-01,-5.339353599070836148e-03,-6.280391251276904452e-01,2.727401199145389228e+02
3.852118358619787575e+00,5.864445619965668932e+00,3.772501345223719493e+00,-6.679709328385251554e-01,-6.229245859298930196e-03,-7.441612925830359826e-01,2.739166484224906526e+02
3.833103783275818799e+00,5.573104649108714170e+00,3.691018202696265238e+00,-5.440109660118174206e-01,-6.943418866844719081e-03,-8.390493774464820032e-01,2.750931769304423824e+02
3.819396034560531117e+00,5.294258692824015178e+00,3.606729618012266769e+00,-4.166944145170973224e-01,-7.456262961790098912e-03,-9.090160444419548291e-01,2.762697054383941122e+02
3.815521856340721829e+00,5.030955671013855657e+00,3.517991361611499723e+00,-2.950602231083159221e-01,-7.782363663781243987e-03,-9.554469632350481856e-01,2.774462339463458420e+02
3.819599371408630706e+00,4.858756866259188456e+00,3.453975458654086950e+00,-1.847374867888242622e-01,-7.959304731362344329e-03,-9.827556717939318620e-01,2.782563900337453902e+02
3.839157378982031688e+00,4.624483453070237005e+00,3.355395529308163205e+00,-8.797805427784256838e-02,-8.029270648279440356e-03,-9.960900525446187981e-01,2.794329185416971200e+02
3.873527838327318396e+00,4.432402350937564961e+00,3.259432055920940652e+00,-4.730092251022989698e-03,-8.028414844100014922e-03,-9.999565844487389166e-01,2.804920838944008210e+02
3.930609666914712808e+00,4.241440852034630282e+00,3.142923939073638984e+00,-1.172313510397501000e-02,1.872998695120954571e-01,-9.822328272787903547e-01,2.816686124023525508e+02
4.006578198020782189e+00,4.075633731376268720e+00,3.013771400247035714e+00,-6.814916481966857287e-01,5.479247668699065849e-02,-7.297718259405950869e-01,2.828451409103042806e+02
4.097576874049755347e+00,3.934389555323193566e+00,2.870594229260151842e+00,-1.421071371866469424e-01,-8.936875034168503262e-01,4.255915974231313514e-01,2.840216694182560104e+02
4.198849874744007060e+00,3.816576374982145303e+00,2.712248246159011167e+00,-2.655428332138737302e-01,-7.883678606215377416e-01,5.549442495131997610e-01,2.851981979262077402e+02
4.305206674581211423e+00,3.720569770638388007e+00,2.538713134936458449e+00,-3.977499708207411500e-01,-6.182879753321831595e-01,6.778753132189792030e-01,2.863747264341594700e+02
4.410582760643012357e+00,3.643721229871957235e+00,2.352221675823201963e+00,-5.118961844263023586e-01,-3.945871472482931908e-01,7.630617796720308155e-01,2.875512549421111999e+02
4.500103064670945230e+00,3.587578181160252289e+00,2.175436759518054153e+00,-5.861737215316804583e-01,-1.600036434031550381e-01,7.942286838709716745e-01,2.886154644848770658e+02
4.586440946661185514e+00,3.537879157819896925e+00,1.974121262192569892e+00,-6.207223010171788458e-01,4.429027489276759350e-02,7.827785105442419678e-01,2.897919929928287956e+02
4.652828225232784831e+00,3.500492454315653923e+00,1.769128059030516731e+00,-6.019061360611206446e-01,5.793169087487490959e-02,7.964627565456839919e-01,2.909685215007805255e+02
4.692706529974953078e+00,3.474546336906899402e+00,1.563336977274158324e+00,-5.824907459698235312e-01,7.164349853525335543e-02,8.096738479024425672e-01,2.921450500087322553e+02
4.699501609349805875e+00,3.459215821603022878e+00,1.359627561405166274e+00,-5.625076286686252480e-01,8.539539382628580366e-02,8.223702295212621527e-01,2.933215785166839851e+02
4.669994319918485459e+00,3.453715376369897783e+00,1.162276950230112682e+00,-5.419927755013028703e-01,9.915617171951292275e-02,8.345129626999958639e-01,2.944981070246357149e+02
4.607692984156692262e+00,3.457263784572735865e+00,9.754395918126296250e-01,-5.209863889929428060e-01,1.128940621040299408e-01,8.460662581770682644e-01,2.956746355325874447e+02
4.518415452689620082e+00,3.468997342103698145e+00,7.994725687070434184e-01,-4.995325129182646706e-01,1.265770855429289576e-01,8.569979637974770581e-01,2.968511640405391745e+02
4.405871750566618061e+00,3.487919511651701665e+00,6.330968923447931607e-01,-4.776785818855315280e-01,1.401734198905926765e-01,8.672799921386421529e-01,2.980276925484909043e+02
4.272710820970375245e+00,3.512965118904084250e+00,4.756763401803513203e-01,-4.554749008503285457e-01,1.536517681241836575e-01,8.768886752876304813e-01,2.992042210564426341e+02
4.164539558684114517e+00,3.534349642694551985e+00,3.649412708076066325e-01,-4.329740677617595068e-01,1.669817175419485711e-01,8.858050364795722054e-01,3.000675485290089455e+02
4.005150523939329688e+00,3.566633081942344408e+00,2.200044226869020958e-01,-4.102303547357696867e-01,1.801340807505816821e-01,8.940149713542315801e-01,3.012440770369606753e+02
3.832327276339035471e+00,3.602046885671659204e+00,8.230874750259080386e-02,-3.872990646078792176e-01,1.930812095905392600e-01,9.015093349804625955e-01,3.024206055449124051e+02
3.648671827948660518e+00,3.639473842966382211e+00,-4.877181664190317900e-02,-3.642358803567858905e-01,2.057972742845173564e-01,9.082839343276860600e-01,3.035971340528641349e+02
3.456775802707837908e+00,3.677781717803907835e+00,-1.738609873766124581e-01,-3.410962246890796856e-01,2.182585015634783132e-01,9.143394293139293083e-01,3.047736625608158647e+02
3.258767912932559963e+00,3.715926035000009620e+00,-2.929326948707476896e-01,-3.787316740435862084e-01,1.884772681589914067e-01,9.061118244805473898e-01,3.059501910687675945e+02
3.129475901722765130e+00,3.740057756496144581e+00,-3.661990650494383881e-01,-4.159137165903663558e-01,1.578759758106990374e-01,8.955953085036834072e-01,3.067047442082855468e+02
2.924920201488677929e+00,3.776544473719241513e+00,-4.739830990831891411e-01,-4.523494029584855802e-01,1.266602016413627130e-01,8.828007764854258754e-01,3.078812727162372767e+02
2.716722110144131896e+00,3.810769762616594836e+00,-5.711762338871719802e-01,-4.877557655821992966e-01,9.505370864097614780e-02,8.677897819258527656e-01,3.090578012241890065e+02
2.505626953756033615e+00,3.841970401160547333e+00,-6.557995246002921164e-01,-5.218705773220612132e-01,6.329058133238701922e-02,8.506734995520590648e-01,3.102343297321407363e+02
2.292554362776340948e+00,3.869316579545383217e+00,-7.267732417625049068e-01,-5.544619749479205995e-01,3.160663509388794007e-02,8.316086453103366249e-01,3.114108582400924661e+02
2.078777652473043691e+00,3.891849631502353191e+00,-7.848201585929108770e-01,-5.853361346762493422e-01,2.308247148017714546e-04,8.107906981226526977e-01,3.125873867480441959e+02
1.952714928970714858e+00,3.903013436091201438e+00,-8.143180913165014578e-01,3.520140075390099099e-01,-5.478630810373027321e-04,9.359945717483463268e-01,3.132818489175462560e+02
1.740318897653736485e+00,3.918090197828803412e+00,-8.563356490533143850e-01,-7.069497921097834560e-05,-5.956837023416438096e-05,9.999999957269145590e-01,3.144583774254979858e+02
1.530416638829200648e+00,3.927441152930932766e+00,-8.862055508892658917e-01,3.240986476722129694e-02,-3.975421998218653900e-05,9.994746615524439104e-01,3.156349059334497156e+02
1.503525531638179258e+00,3.928278632264409431e+00,-8.892457335153093334e-01,6.489049893183314321e-02,-1.987710989869779076e-05,9.978923903674574714e-01,3.157867548756319707e+02
1.297543630687115757e+00,3.932289890215024286e+00,-9.058351045968754400e-01,9.726832630145992864e-02,0.000000000000000000e+00,9.952581939871244510e-01,3.169632833835837005e+02
1.138099880652280183e+00,3.932580892588927401e+00,-9.097551298581157964e-01,1.533899940405608897e-01,-2.586841090345781951e-03,9.881623439402100750e-01,3.178933887491448331e+02
9.424069590883435987e-01,3.930482185786909444e+00,-9.012918117995546430e-01,2.130251885520958455e-01,-5.351608451500984923e-03,9.770320513316469446e-01,3.190699172570965629e+02
7.559378519942444585e-01,3.926655509056919513e+00,-8.740756301428203034e-01,2.757822529627677044e-01,-8.279508125339537020e-03,9.611844769324889848e-01,3.202464457650482927e+02
5.810073810700249197e-01,3.922791055507528934e+00,-8.251936225870996067e-01,3.410384104776947312e-01,-1.134502675250937710e-02,9.399809003095926929e-01,3.214229742730000225e+02
4.199438621811825700e-01,3.920564610995433963e+00,-7.517251488793641467e-01,4.079248918877908525e-01,-1.451092758818272460e-02,9.129001673561378816e-01,3.225995027809517524e+02
2.750900567902521132e-01,3.921638356361706990e+00,-6.507408557961648077e-01,4.753425131928019631e-01,-1.772858821870217094e-02,8.796221872550298304e-01,3.237760312889034822e+02
1.483806427265196293e-01,3.927538118626882735e+00,-5.210083276382712070e-01,5.420162816012885632e-01,-2.094013474486841955e-02,8.401070534378219934e-01,3.249525597968552120e+02
4.042890968636587978e-02,3.939456384235966002e+00,-3.647750988540724437e-01,6.065893733843399360e-01,-2.408247404263439209e-02,7.946504681563962835e-01,3.261290883048069418e+02
-4.954103914291691640e-02,3.958308011792988967e+00,-1.861395226891824073e-01,6.677449888354357599e-01,-2.709278333241927836e-02,7.438969088364775217e-01,3.273056168127586716e+02
-7.000336361253717277e-02,3.964086931941714909e+00,-1.381500075518094506e-01,7.243335957828309635e-01,-2.991447831966148954e-02,6.888003818285649560e-01,3.276037687218015435e+02
-1.423084973114068508e-01,3.991389019303578145e+00,5.933887239020155246e-02,7.754785440066817026e-01,-3.250241193340747820e-02,6.305367721265653369e-01,3.287802972297532733e+02
-1.994387733689477749e-01,4.027554589379902517e+00,2.698345219839192177e-01,8.206381675684920607e-01,-3.482622649980181978e-02,5.703859499300557578e-01,3.299568257377050031e+02
-2.426233432170219473e-01,4.073456787368558096e+00,4.891810503723544312e-01,8.596154343861357461e-01,-3.687133732028870237e-02,5.096094675821364328e-01,3.311333542456567329e+02
-2.730808338009322878e-01,4.129981502856381326e+00,7.132257032778098749e-01,8.925209455057669938e-01,-3.863770503923004418e-02,4.493478492023668669e-01,3.323098827536084627e+02
-2.906620763328087720e-01,4.198089542339037195e+00,9.383961571747042596e-01,9.197053770213078350e-01,-4.013706391055932299e-02,3.905522187604797413e-01,3.334864112615601925e+02
-2.924918421533387325e-01,4.278867624661771174e+00,1.162278019155663422e+00,9.416803954650077024e-01,-4.138945802858054468e-02,3.339535080830366431e-01,3.346629397695119223e+02
-2.743247345632845446e-01,4.373450295344179395e+00,1.381473154182339735e+00,9.590437976337161663e-01,-4.241982833310840167e-02,2.800634792051425737e-01,3.358394682774636522e+02
-2.347241225230554951e-01,4.482958903018482211e+00,1.590626619453927804e+00,9.620654809736099988e-01,-1.432122598478092201e-01,2.322073619597363192e-01,3.370159967854153820e+02
-1.955111419010600593e-01,4.571415653372362442e+00,1.734960909699713394e+00,9.527048848713347562e-01,-2.447864698839997688e-01,1.800916058677536069e-01,3.378716113576981570e+02
-1.333331168265012023e-01,4.706192501249447879e+00,1.919788059818172465e+00,9.308438550522696309e-01,-3.431488371799635284e-01,1.256128697764208602e-01,3.390481398656498868e+02
