3.797086421456127958e+00,8.700702727749890286e+00,1.861811806763995714e+00,-8.134328466257698675e-01,-1.156727615685413345e-02,5.815438093150058219e-01,1.114402083372524856e+02
3.898870569985693812e+00,8.535190312788966338e+00,2.051699069881968374e+00,-8.665767050782476888e-01,-8.962181004362582831e-03,4.989634190272597691e-01,1.131076798669742800e+02
3.993735280665931420e+00,8.354451351510771673e+00,2.249858815491120989e+00,-9.085273888431060207e-01,-6.459775534272647023e-03,4.177753643071531187e-01,1.147751513966960744e+02
4.084786478538259047e+00,8.158116053925711597e+00,2.451246652796435832e+00,-9.403606707835193701e-01,-4.114532478426666945e-03,3.401541995419921083e-01,1.164426229264178687e+02
4.175106985515568248e+00,7.945710231348823704e+00,2.650834716668463820e+00,-9.635521266785540551e-01,-1.957431500171278455e-03,2.675134905666587404e-01,1.181100944561396631e+02
4.175679879190793642e+00,7.944317236782636904e+00,2.652081279757878995e+00,-9.796754793915599668e-01,0.000000000000000000e+00,2.005890203349053880e-01,1.181206234595944693e+02
4.267953116485187159e+00,7.715289146454734848e+00,2.845176065507399876e+00,-9.858462944610169032e-01,2.445239499639940625e-03,1.676338405611209892e-01,1.197880949893162636e+02
4.363987191979975755e+00,7.469310149760159057e+00,3.027889997674009237e+00,-9.909235575405482832e-01,4.898873883358899686e-03,1.343372775734971991e-01,1.214555665190380580e+02
4.412633695320733018e+00,7.342777675145377714e+00,3.109774103382061394e+00,-9.948784557130071482e-01,7.352522718465766272e-03,1.008107076047805861e-01,1.222593452142590422e+02
4.518335986724220987e+00,7.064922965206393179e+00,3.265905491563442453e+00,-9.976935291116412197e-01,9.797747842199099402e-03,6.716863930421203277e-02,1.239268167439808366e+02
4.627918773184464207e+00,6.773340626933339159e+00,3.408160416385107805e+00,-9.993630350756295133e-01,1.222619768593451173e-02,3.352676862703194566e-02,1.255942882737026309e+02
4.740663173666559871e+00,6.470167766297540979e+00,3.536634399922872429e+00,-9.998929794933587578e-01,1.462974913980168157e-02,0.000000000000000000e+00,1.272617598034244253e+02
4.855883325301706854e+00,6.157487401484629252e+00,3.651352414788316736e+00,-9.985942450716455143e-01,5.300503475888237309e-02,0.000000000000000000e+00,1.289292313331462196e+02
4.972922439959850394e+00,5.837338929378639740e+00,3.752269011970469137e+00,-9.955573173885063909e-01,9.415746276424750982e-02,0.000000000000000000e+00,1.305967028628679998e+02
5.091149093184799135e+00,5.511728397702418292e+00,3.839268088164840886e+00,-9.904092024577775266e-01,1.381651609015424331e-01,0.000000000000000000e+00,1.322641743925897799e+02
5.209953724906309702e+00,5.182638633887882484e+00,3.912162291398820990e+00,-9.827296740142145159e-01,1.850469881190062726e-01,0.000000000000000000e+00,1.339316459223115601e+02
5.328745332840628457e+00,4.852039281169713725e+00,3.970692061910472859e+00,-9.720581240049084304e-01,2.347402895884260765e-01,0.000000000000000000e+00,1.355991174520333402e+02
5.446948340886569540e+00,4.521896792062626069e+00,4.014524303370984981e+00,-9.579076709819088764e-01,2.870764599788965810e-01,0.000000000000000000e+00,1.372665889817551204e+02
5.563999626126885367e+00,4.194184429296457850e+00,4.043250677648459579e+00,-9.397884461226505559e-01,3.417567505322667842e-01,0.000000000000000000e+00,1.389340605114769005e+02
5.679345689261264596e+00,3.870892324445745825e+00,4.056385514383115343e+00,-9.172412085425506456e-01,3.983322298677336448e-01,0.000000000000000000e+00,1.406015320411986806e+02
5.792439954437037741e+00,3.554037644901125947e+00,4.053363324672027979e+00,-8.898807725578398165e-01,4.561931724958872558e-01,0.000000000000000000e+00,1.422690035709204608e+02
5.902740185517320270e+00,3.245674920491747883e+00,4.033535906135498728e+00,-8.574461031682198975e-01,5.145737849537559416e-01,0.000000000000000000e+00,1.439364751006422409e+02
6.009706006839041770e+00,2.947906581986702079e+00,3.996169024545547455e+00,-8.198507292635973664e-01,5.725773150640424136e-01,0.000000000000000000e+00,1.456039466303640211e+02
6.112796517472285807e+00,2.662893764883507153e+00,3.940438655030221504e+00,-7.772242994717821762e-01,6.292236393450244547e-01,0.000000000000000000e+00,1.472714181600858012e+02
6.209573364621501668e+00,2.392482385043401827e+00,3.866205550399188784e+00,-7.299350635746607585e-01,6.835164979459208423e-01,0.000000000000000000e+00,1.489388896898075814e+02
6.295666171213999185e+00,2.137842932296135867e+00,3.774800242010409423e+00,-6.785850484889490719e-01,7.345218389995293862e-01,0.000000000000000000e+00,1.506063612195293615e+02
6.329629917432414210e+00,2.027418994823847687e+00,3.725429096214841085e+00,-6.239749392544091666e-01,7.814443519422583639e-01,0.000000000000000000e+00,1.513792128895204314e+02
6.389514530799943692e+00,1.806447635767591819e+00,3.605297855258375428e+00,-5.670428211106335326e-01,8.236883142468964802e-01,0.000000000000000000e+00,1.530466844192422116e+02
6.434945803319488178e+00,1.604005699495438808e+00,3.472971236197635481e+00,-5.087874113897131734e-01,8.608921941865628202e-01,0.000000000000000000e+00,1.547141559489639917e+02
6.465052140836968775e+00,1.421274341158169419e+00,3.330281908710620353e+00,-4.501896844556330657e-01,8.929329470961061554e-01,0.000000000000000000e+00,1.563816274786857718e+02
6.478892137366858428e+00,1.259543149560328867e+00,3.179009492126147585e+00,-3.921457897113133084e-01,9.199030816405010524e-01,0.000000000000000000e+00,1.580490990084075520e+02
6.475450569419029634e+00,1.120217338616719349e+00,3.020889665914490596e+00,-3.354197451505150918e-01,9.420687844118196264e-01,0.000000000000000000e+00,1.597165705381293321e+02
6.453634066184920748e+00,1.004825565842810242e+00,2.857623055234703280e+00,-2.806186682025300638e-01,9.598193387592471870e-01,0.000000000000000000e+00,1.613840420678511123e+02
6.447207517480360472e+00,9.895911930894130126e-01,2.830501218047206891e+00,-2.281883870962284622e-01,9.736169986162022116e-01,0.000000000000000000e+00,1.616554562901225154e+02
6.389354734962546800e+00,9.188750592656179661e-01,2.661535672078866099e+00,-1.784243445845903886e-01,9.839536336939659344e-01,0.000000000000000000e+00,1.633229278198442955e+02
6.310485294015168556e+00,8.760613356606423707e-01,2.491128855726127966e+00,-1.314918630800652743e-01,9.913172498971927205e-01,0.000000000000000000e+00,1.649903993495660757e+02
6.209159824443494458e+00,8.632054545777575472e-01,2.320918485397443831e+00,-8.745049385669828590e-02,9.961688667712013112e-01,0.000000000000000000e+00,1.666578708792878558e+02
6.084850754371698756e+00,8.824566344109349147e-01,2.153156460376222547e+00,-4.627854823743263180e-02,9.989285740096913724e-01,0.000000000000000000e+00,1.683253424090096360e+02
5.938947006692486319e+00,9.341607029213220281e-01,1.990741325338996948e+00,-7.895388202740294750e-03,9.999688309368087724e-01,0.000000000000000000e+00,1.699928139387314161e+02
5.773725995039912462e+00,1.015092234867402521e+00,1.836027688773182787e+00,-9.085983591033545623e-03,9.863532086573502111e-01,1.643921916440480580e-01,1.716602854684531962e+02
5.764039831070593145e+00,1.020385133107752251e+00,1.827887056879259786e+00,-1.026300498627672961e-02,9.284277993440883670e-01,3.713710976015028864e-01,1.717512158669468647e+02
5.575114973945137109e+00,1.131007444101229886e+00,1.685021011356183429e+00,-1.105364599265230147e-02,7.999511424367687917e-01,5.999633210658611437e-01,1.734186873966686449e+02
5.371171245545020234e+00,1.260886703518238505e+00,1.553659939820051461e+00,-1.105379051015227369e-02,5.999633658823253501e-01,7.999511068274790526e-01,1.750861589263904250e+02
5.154073028399174028e+00,1.405322943012830228e+00,1.435725190163386955e+00,-1.026340746897192943e-02,3.713711342330415777e-01,9.284277802422707948e-01,1.767536304561122051e+02
4.925578318493183616e+00,1.559150454283507070e+00,1.332403945209969409e+00,-9.086577343711267976e-03,1.643922098250988617e-01,9.863532001575284758e-01,1.784211019858339853e+02
4.687618574993742904e+00,1.717062149682593963e+00,1.243404447303092297e+00,-7.896110403326194946e-03,0.000000000000000000e+00,9.999688252343162942e-01,1.800885735155557654e+02
4.442588449768893888e+00,1.874983044061696136e+00,1.167809448387870264e+00,-4.287249697654980582e-03,0.000000000000000000e+00,9.999908097027843112e-01,1.817560450452775456e+02
4.193093318364836897e+00,2.029695482632474235e+00,1.104822367633227831e+00,-6.781921287373642894e-04,0.000000000000000000e+00,9.999997700276916923e-01,1.834235165749993257e+02
3.941689922746721919e+00,2.177945103288027262e+00,1.053711168433456358e+00,2.930921284378511585e-03,0.000000000000000000e+00,9.999957048409883198e-01,1.850909881047211059e+02
3.897622926043634362e+00,2.202481157123501898e+00,1.046516664102776772e+00,6.539949510587526882e-03,0.000000000000000000e+00,9.999786143015254591e-01,1.853831162647931023e+02
3.647514906321805306e+00,2.332308647294995652e+00,1.015146197352166935e+00,1.014875153428117759e-02,-0.000000000000000000e+00,9.999485000950276703e-01,1.870505877945148825e+02
3.401115817723558976e+00,2.448245743338663960e+00,9.943320568836954143e-01,-3.239275452818686785e-01,2.349731664781699522e-02,9.457900515008682563e-01,1.887180593242366626e+02
3.160913394186861680e+00,2.546774989908203057e+00,9.835581292823174504e-01,-6.207223010171788458e-01,4.429027489276759350e-02,7.827785105442419678e-01,1.903855308539584428e+02
2.929399430188260656e+00,2.624269936246916846e+00,9.823597004082312845e-01,-5.861737215316804583e-01,-1.600036434031549826e-01,7.942286838709716745e-01,1.920530023836802229e+02
2.709209616704648660e+00,2.678426919384479188e+00,9.897660541050784522e-01,-5.118961844263023586e-01,-3.945871472482931352e-01,7.630617796720309265e-01,1.937204739134020031e+02
2.503279214427695631e+00,2.709702170445370317e+00,1.003740480506011945e+00,-3.977499708207412055e-01,-6.182879753321831595e-01,6.778753132189793140e-01,1.953879454431237832e+02
2.314752162180725215e+00,2.719861163034422713e+00,1.021724871661918943e+00,-2.655428332138737302e-01,-7.883678606215377416e-01,5.549442495131997610e-01,1.970554169728455634e+02
2.259957589521891297e+00,2.716922704475518202e+00,1.028163827836163113e+00,-1.421071371866469424e-01,-8.936875034168503262e-01,4.255915974231313514e-01,1.975965919340135315e+02
2.113753119769530731e+00,2.685053911659407433e+00,1.048011008039051228e+00,-1.257224247344640722e-01,-7.913828292619602411e-01,5.982533656137857259e-01,1.992640634637353116e+02
2.022201753365959753e+00,2.635613674599273093e+00,1.061788094988430631e+00,-9.994133487880145494e-02,-6.300765606119156370e-01,7.700748387982186971e-01,2.005395563263214740e+02
1.929996204855690234e+00,2.532863396427218916e+00,1.078211484827963362e+00,-6.642049908449748630e-02,-4.200510435877899962e-01,9.050665379308722169e-01,2.022070278560432541e+02
1.862728171081308171e+00,2.394075473313206359e+00,1.096637092011157444e+00,-3.099174366993663263e-02,-1.978457113026263481e-01,9.797431226313634278e-01,2.038744993857650343e+02
1.816818179446359816e+00,2.223504728695094190e+00,1.122002930059571746e+00,5.286362030106785516e-04,-0.000000000000000000e+00,9.999998602718727092e-01,2.055419709154868144e+02
1.788830543620399727e+00,2.025270031631775325e+00,1.159282541832467262e+00,9.303527144256833470e-01,-2.383318412293171547e-03,3.666580785338139914e-01,2.072094424452085946e+02
1.776264914423275165e+00,1.804853111846256741e+00,1.212402756950407001e+00,9.187460599889840651e-01,4.432688548408255172e-03,3.948240475540349959e-01,2.088769139749303747e+02
1.777934283872016685e+00,1.623659117682898279e+00,1.266495202022928757e+00,9.054508893127813929e-01,1.166058427390982699e-02,4.242908410714096301e-01,2.101631612464034333e+02
1.794992930461175140e+00,1.382469497682939696e+00,1.352579760830321609e+00,8.902636905160753455e-01,1.931281743881199317e-02,4.550357968679746290e-01,2.118306327761252135e+02
1.827185772493146843e+00,1.143345113535927826e+00,1.452955817038505071e+00,8.729681499047925453e-01,2.739689473301273534e-02,4.870072067339372701e-01,2.134981043058469936e+02
1.874991317010951786e+00,9.151456044603469842e-01,1.565881455435098157e+00,8.533391719829640509e-01,3.591367937185666048e-02,5.201177416637551287e-01,2.151655758355687738e+02
1.939038999829780785e+00,7.067824434313121351e-01,1.689679006408074446e+00,8.311489686346202888e-01,4.485546936066886481e-02,5.542376555287821249e-01,2.168330473652905539e+02
2.020113034773053151e+00,5.272635577988151745e-01,1.822726457378877063e+00,8.061755832304531300e-01,5.420393678055787645e-02,5.891883079631909936e-01,2.185005188950123340e+02
2.118010781391852060e+00,3.826724595148440211e-01,1.961924604624657897e+00,7.782140791080326414e-01,6.392806987571474087e-02,6.247367837417631131e-01,2.201679904247341142e+02
2.230364162353915436e+00,2.731443878046831975e-01,2.101156642843558853e+00,7.470903611650678844e-01,7.398232981750324511e-02,6.605926181308890976e-01,2.218354619544558943e+02
2.353727295396613517e+00,1.959501407911191373e-01,2.232781395636505462e+00,7.126771948445119742e-01,8.430530292155413719e-02,6.964078057057248028e-01,2.235029334841776745e+02
2.467919982474282570e+00,1.547149513176669655e-01,2.334371276203177636e+00,6.749114503560443845e-01,9.481917857250113379e-02,7.317812907919528653e-01,2.249557598933565714e+02
2.603479734774987175e+00,1.341797236393666715e-01,2.428653408608182573e+00,6.338109945518389798e-01,1.054303887996809186e-01,7.662689190504575754e-01,2.266232314230783516e+02
2.740227924989932173e+00,1.356916632868906403e-01,2.492951266353837791e+00,5.894891049125944305e-01,1.160316822124546621e-01,7.993993019213215812e-01,2.282907029528001317e+02
2.874812508037226433e+00,1.547203578805568247e-01,2.521062042138122905e+00,5.421639699604114959e-01,1.265057568322556503e-01,8.306952047321954913e-01,2.299581744825219118e+02
3.003997093827011078e+00,1.880568627538776461e-01,2.510241667085876482e+00,4.921609589933912399e-01,1.367303485454039458e-01,8.596990183950182773e-01,2.316256460122436920e+02
3.012581111998198224e+00,1.909469100053403923e-01,2.507653959912417019e+00,4.399060171880230241e-01,1.465843999469703673e-01,8.859998361929629640e-01,2.317415740404346991e+02
3.128327014749026524e+00,2.412249636617864457e-01,2.446076900329754444e+00,3.859097478260762326e-01,1.559546822499385532e-01,9.092589310076282239e-01,2.334090455701564792e+02
3.230997874381726476e+00,3.082305286031533642e-01,2.353168909012931298e+00,3.307432669574625339e-01,1.647420863989097761e-01,9.292302924093891470e-01,2.350765170998782594e+02
3.316414052779554478e+00,3.979461994018151927e-01,2.236904587974614333e+00,2.750083852650629379e-01,1.728667975833354520e-01,9.457734709364524761e-01,2.367439886296000395e+02
3.380354000053479080e+00,5.165042092846603428e-01,2.105138970020465017e+00,2.193056794956710631e-01,1.802717349525779222e-01,9.588571950598949734e-01,2.384114601593218197e+02
3.420173017614312361e+00,6.669126057241557826e-01,1.964428693905953427e+00,1.642042768646196638e-01,1.869239354964017663e-01,9.685537660852413522e-01,2.400789316890435998e+02
3.436395663785341448e+00,8.457484881821355494e-01,1.818846532560134843e+00,1.102166438374213991e-01,1.928139064350136433e-01,9.750256862803589053e-01,2.417464032187653800e+02
3.431028352541887205e+00,1.046421558140364860e+00,1.671221280495724049e+00,5.778054668810984895e-02,1.979532733739506611e-01,9.785069800389576411e-01,2.434138747484871601e+02
3.405913983853074978e+00,1.262438724685739144e+00,1.524371272859477600e+00,7.248986741586705036e-03,2.023712454053236132e-01,9.792820488624910391e-01,2.450813462782089402e+02
3.362742145654622039e+00,1.487371960699249929e+00,1.381118813439800475e+00,-4.111233464905580948e-02,2.061104797467172567e-01,9.776646900028055365e-01,2.467488178079307204e+02
3.358092570040978941e+00,1.506057619865536434e+00,1.369706133529064340e+00,-8.712135261688776222e-02,2.092228750744119237e-01,9.739792905723410055e-01,2.468853464919722569e+02
3.288483393847141389e+00,1.733660628981367857e+00,1.235144815127624529e+00,-1.306715461486948060e-01,2.117656967477894170e-01,9.685454231516624768e-01,2.485528180216940370e+02
3.203849620562827738e+00,1.955208262746254588e+00,1.107738986544591908e+00,-1.717212242191792082e-01,2.137982854862065796e-01,9.616663216915859458e-01,2.502202895514158172e+02
3.105396649267972542e+00,2.162659530786987361e+00,9.879545656028462242e-01,-2.102817613091455262e-01,2.153794605057189615e-01,9.536211348606893345e-01,2.518877610811375973e+02
2.994194581547229284e+00,2.347892060875851783e+00,8.762964866811939757e-01,-2.464059780507205644e-01,2.165656194568013893e-01,9.446604821046340472e-01,2.535552326108593775e+02
2.871985181928288000e+00,2.504027935454510523e+00,7.743534669732131670e-01,-2.801774630513132469e-01,2.174094668559745369e-01,9.350046593036479559e-01,2.552227041405811576e+02
2.742006337950935624e+00,2.626757458968541403e+00,6.858483209841274020e-01,-3.117012791724465548e-01,2.179592663377480644e-01,9.248438088562691561e-01,2.568901756703029378e+02
2.608226725204843888e+00,2.712938588085388236e+00,6.156148376139171097e-01,-3.410962246890796856e-01,2.182585015634783132e-01,9.143394293139293083e-01,2.585576472000247463e+02
2.512150371718989916e+00,2.746385726555213402e+00,5.815509145438700900e-01,-4.701982455403870831e-01,1.108913077735862313e-01,8.755665181760924343e-01,2.597536909995798169e+02
2.381442362550186598e+00,2.750357745204955684e+00,5.611590147036752407e-01,-5.853361346762493422e-01,2.308247148017714546e-04,8.107906981226526977e-01,2.614211625293016255e+02
2.318922214294336648e+00,2.729814406376763092e+00,5.662042984131351320e-01,3.520140075390099099e-01,-5.478630810373027321e-04,9.359945717483463268e-01,2.622585969576654747e+02
2.202067628466063631e+00,2.644527362337587562e+00,6.072449380900547533e-01,-7.069497921097834560e-05,-5.956837023416438096e-05,9.999999957269145590e-01,2.639260684873872833e+02
2.092576251227459938e+00,2.518971379293748925e+00,6.766998266479173907e-01,7.034392189250978158e-03,2.484957085891873266e-02,9.996664524503436899e-01,2.655935400171090919e+02
1.989704395789022584e+00,2.359321360432645953e+00,7.703983070106887876e-01,1.588992999017996635e-02,5.589529353795426314e-02,9.983101854059253100e-01,2.672610115468309004e+02
1.892790637241423157e+00,2.171582416291794715e+00,8.842938334253007682e-01,2.719212067300544322e-02,9.551819914028117364e-02,9.950562105762177367e-01,2.689284830765527090e+02
1.801251164651161973e+00,1.961620113263763843e+00,1.014443255786044329e+00,4.202578176140776833e-02,1.475211421684589075e-01,9.881656471870775560e-01,2.705959546062745176e+02
1.715166069690562622e+00,1.737134996880170368e+00,1.158472885640163375e+00,6.212831267341459296e-02,2.179944527352816186e-01,9.739704776537118081e-01,2.722634261359963261e+02
1.635889733131679291e+00,1.509640341463388769e+00,1.317052596810079468e+00,9.029273308784863117e-02,3.167284174005016162e-01,9.442088391677447845e-01,2.739308976657181347e+02
1.565497736367575277e+00,1.292566262616912987e+00,1.492413002317305670e+00,1.306213178572097067e-01,4.581012036504797380e-01,8.792504526784318264e-01,2.755983691954399433e+02
1.526584552835149378e+00,1.165066795368042474e+00,1.619614191482467325e+00,1.863225930134724817e-01,6.533528124545520122e-01,7.337669887576454553e-01,2.766912937330144473e+02
1.480247997011365557e+00,1.004426716144970921e+00,1.834279128013506233e+00,2.468302336226767812e-01,8.654260363161090375e-01,4.360190493957386004e-01,2.783587652627362559e+02
1.449201955484932691e+00,8.871229559723365909e-01,2.069705065979397407e+00,2.742894936457210830e-01,9.616128716604286364e-01,8.121498172014256570e-03,2.800262367924580644e+02
1.436086669978379415e+00,8.161862810148601266e-01,2.321635142944773023e+00,2.562901038119779762e-01,8.984414796213517906e-01,-3.565365204068744465e-01,2.816937083221798730e+02
1.443625497946547265e+00,7.884622616287720875e-01,2.582847007423623609e+00,2.240696109065466457e-01,7.854405262944182953e-01,-5.769540615356960611e-01,2.833611798519016816e+02
1.474606375760080690e+00,7.972406944810126461e-01,2.845235919104749378e+00,1.958283983442784537e-01,6.864085052005247656e-01,-7.003531983151755069e-01,2.850286513816234901e+02
1.525065165505023135e+00,8.309636106894022767e-01,3.076686478607750352e+00,1.742066881204829554e-01,6.105929508323300059e-01,-7.725466187926529615e-01,2.865392451506800171e+02
1.603656149743816650e+00,8.885430384666683779e-01,3.317689031371559238e+00,1.579164649918665675e-01,5.534737445144175538e-01,-8.177586466786285202e-01,2.882067166804018257e+02
1.702520580730879640e+00,9.606175601215429793e-01,3.537498997412155344e+00,1.454597648828380441e-01,5.097970402154349268e-01,-8.479082701494375929e-01,2.898741882101236342e+02
1.725581868240005257e+00,9.771727736059493408e-01,3.576385131019447883e+00,1.357257393096436560e-01,4.756672483759162851e-01,-8.690910150906722142e-01,2.902031591749708923e+02
1.859529617066434160e+00,1.072716744290606261e+00,3.749971340170489054e+00,1.279536844872172230e-01,4.484168500695432380e-01,-8.846186654145696826e-01,2.918706307046927009e+02
2.009633510235532050e+00,1.179816399283188488e+00,3.898157134660177103e+00,1.216260801085629617e-01,4.262311494545779622e-01,-8.964006380363941373e-01,2.935381022344145094e+02
2.173402795121776254e+00,1.297037930675547734e+00,4.021688552373214876e+00,6.099589117569525348e-02,3.848123006986360339e-01,-9.209771954238091807e-01,2.952055737641363180e+02
2.348406640063057438e+00,1.423018836175515389e+00,4.121185416886627984e+00,0.000000000000000000e+00,3.410862924551649744e-01,-9.400319894020574552e-01,2.968730452938581266e+02
2.531439825392989285e+00,1.557277415471337800e+00,4.197578081568954289e+00,5.300273656876602468e-04,0.000000000000000000e+00,-9.999998595354860909e-01,2.985405168235799351e+02
2.717683449877426050e+00,1.701034246347414403e+00,4.252884720636193272e+00,-6.700825643701949219e-02,-0.000000000000000000e+00,-9.977524209789072618e-01,3.002079883533017437e+02
2.901506084814169384e+00,1.856413021227268256e+00,4.290127047128392768e+00,9.303609119956803841e-01,-2.358487803966914133e-03,-3.666374380308758951e-01,3.018754598830235523e+02
3.077271316853887217e+00,2.025640059056684539e+00,4.312573253848217547e+00,0.000000000000000000e+00,3.025577441558382347e-02,-9.995421892619207327e-01,3.035429314127453608e+02
3.239318871744202522e+00,2.211057091106964023e+00,4.323415787111589026e+00,-1.403464077947989275e-01,-4.257102307760083360e-01,-8.939092153187222500e-01,3.052104029424671694e+02
3.381936193074215335e+00,2.415133597903952545e+00,4.325787689976841044e+00,-9.584771993550285363e-02,-2.907441889169788962e-01,-9.519879364751285822e-01,3.068778744721889780e+02
3.389986837759974669e+00,2.429073013492500266e+00,4.325667083674582969e+00,-4.791840722478359071e-02,-1.453720944902204548e-01,-9.882159583778062917e-01,3.069848566419610734e+02
3.497333424157426762e+00,2.659744276467027380e+00,4.320668355976247099e+00,1.064529351364108455e-05,0.000000000000000000e+00,-9.999999999433388798e-01,3.086523281716828819e+02
3.581692353821790409e+00,2.909835455128404913e+00,4.311538678471566577e+00,-2.421643509407129524e-01,1.947081689637401511e-02,-9.700398519766345595e-01,3.103197997014046905e+02
3.645566814764478192e+00,3.177440267776781457e+00,4.299309494436082346e+00,-4.843400438113730777e-01,3.894163325681998522e-02,-8.740127408454001490e-01,3.119872712311264991e+02
3.691338953605023399e+00,3.460723360750246336e+00,4.284996379673087219e+00,-6.814916481966857287e-01,5.479247668699065849e-02,-7.297718259405950869e-01,3.136547427608483076e+02
3.721406716177209528e+00,3.757840567372126905e+00,4.269204591370913349e+00,-7.213041794498477044e-01,5.211739616193081931e-02,-6.906548035925634821e-01,3.153222142905701162e+02
3.738319951567762978e+00,4.066857729296345703e+00,4.251732516395136940e+00,-7.605524481820350458e-01,4.914396793181614181e-02,-6.474139664698542740e-01,3.169896858202919248e+02
3.743684208694511906e+00,4.343346824835233377e+00,4.234626545459073910e+00,-7.986195702010551178e-01,4.587266910828636385e-02,-6.000853941904965572e-01,3.184351305692761116e+02
3.741498934759268202e+00,4.670352367359037693e+00,4.212057336942209851e+00,-8.348480721477063993e-01,4.231437024652661555e-02,-5.488517017390927011e-01,3.201026020989979202e+02
3.733395742706974829e+00,5.003527573202227074e+00,4.186034996616789350e+00,-8.685772797192803374e-01,3.849150937871718969e-02,-4.940565887236028075e-01,3.217700736287197287e+02
3.721790247308083721e+00,5.340976560638090120e+00,4.155905885942353883e+00,-8.991879594702651968e-01,3.443827456248760993e-02,-4.362052484655125628e-01,3.234375451584415373e+02
3.709064971359751439e+00,5.680806643857460259e+00,4.120995342350018298e+00,-9.261486484156687959e-01,3.019956419838680170e-02,-3.759476923191006348e-01,3.251050166881633459e+02
3.697581698530063132e+00,6.021118812723423197e+00,4.080604225411274655e+00,-9.490566790536496544e-01,2.582870600815321757e-02,-3.140450571010511283e-01,3.267724882178851544e+02
3.689693643267794254e+00,6.359998084155447984e+00,4.034005337697687210e+00,-9.676671474006328655e-01,2.138417201809454660e-02,-2.513225199392651321e-01,3.284399597476069630e+02
3.687757499740281109e+00,6.695503676725444997e+00,3.980439702007989133e+00,-9.819051585964154727e-01,1.692574826251382406e-02,-1.886154250518821685e-01,3.301074312773287716e+02
3.694145430746520464e+00,7.025658958659205311e+00,3.919112675902364895e+00,-9.918600633905827468e-01,1.251072809551805054e-02,-1.267165984918680877e-01,3.317749028070505801e+02
3.711257056844920132e+00,7.348441117797156252e+00,3.849189883653358457e+00,-9.977639797475924555e-01,8.190661445794666928e-03,-6.633214743490885301e-02,3.334423743367723887e+02
3.741531505530665491e+00,7.661770500164838182e+00,3.769792944793467715e+00,-9.999595564366391409e-01,4.009030543691316159e-03,-8.050662403776276399e-03,3.351098458664941973e+02
3.785259080285426236e+00,7.963720921243234052e+00,3.680280972493374492e+00,-9.988630243651323015e-01,0.000000000000000000e+00,4.767240875119570925e-02,3.367773173962160058e+02
3.839039635936679851e+00,8.253041106015860606e+00,3.581099536148015794e+00,-9.989794999902646966e-01,-2.225354153883793768e-05,4.516589536343268430e-02,3.384447889259378144e+02
3.898627135315742898e+00,8.529241545035167960e+00,3.474063195695395123e+00,-9.990896968348108587e-01,-4.450932646101648095e-05,4.265882906791512025e-02,3.401122604556596229e+02
3.960457982053386061e+00,8.792084125610971412e+00,3.361512547466556367e+00,-9.991936109156135393e-01,-6.676693454402570676e-05,4.015125711100595712e-02,3.417797319853814315e+02
3.997524282959551201e+00,8.944440526218313536e+00,3.290675728470838557e+00,-9.992912386045846862e-01,-8.902594534280208131e-05,3.764322678113716375e-02,3.427987071705284734e+02
4.054091709330994497e+00,9.179824037334755715e+00,3.173308180425385316e+00,-9.993825766292054880e-01,-1.112859382293893514e-04,3.513478540435653608e-02,3.444661787002502820e+02
4.103489035743628222e+00,9.400698835832955069e+00,3.056570166837847768e+00,-9.994676220729697969e-01,-1.335464924326445048e-04,3.262598033986668922e-02,3.461336502299720905e+02
4.142088108721011963e+00,9.606644192150854522e+00,2.942752614266904043e+00,-9.995463723757725960e-01,-1.558071870779802171e-04,3.011685897555732225e-02,3.478011217596938991e+02
4.167894940725591191e+00,9.797128883482891126e+00,2.834416229189302694e+00,-9.996188253342414010e-01,-1.780676012271344990e-04,2.760746872353162656e-02,3.494685932894157077e+02
4.182231982938390935e+00,9.971428925843873969e+00,2.734659436199410543e+00,-9.996849791020121501e-01,-2.003273139179594792e-04,2.509785701562795845e-02,3.511360648191375162e+02
4.188049636355156480e+00,1.012866024268617871e+01,2.646879410849108272e+00,-9.997448321899490287e-01,-2.225859042042202030e-04,2.258807129893769527e-02,3.528035363488593248e+02
4.188246689858929450e+00,1.026782811383134941e+01,2.574534641892020304e+00,-9.997983834663077829e-01,-2.448429511953944203e-04,2.007815903132020505e-02,3.544710078785811334e+02
4.185684476717784541e+00,1.038782240957741188e+01,2.521162636462694895e+00,-9.998456321568424121e-01,-2.670980340964652444e-04,1.756816767691606399e-02,3.561384794083029419e+02
4.183200796530385013e+00,1.048741212170653903e+01,2.490398029789311796e+00,-9.998865778448561281e-01,-2.893507322476971690e-04,1.505814470165931819e-02,3.578059509380247505e+02
4.183623669500777353e+00,1.056523916483967440e+01,2.485991192099025859e+00,-9.999212204711954710e-01,-3.116006251643869854e-04,1.254813756879000035e-02,3.594734224677465591e+02
4.188121444037172125e+00,1.062063538739093183e+01,2.510318607700129601e+00,-9.999495603341883587e-01,-3.338472925765813607e-04,1.003819373436769941e-02,3.611408939974683676e+02
4.194552948990631691e+00,1.065446039358898211e+01,2.562886220564934536e+00,-9.999715980895257372e-01,-3.560903144687511024e-04,7.528360642787271760e-03,3.628083655271901762e+02
4.198794340961796046e+00,1.066705518773882844e+01,2.634776089801556420e+00,-9.999873347500874976e-01,-3.783292711194148443e-04,5.018685722297686232e-03,3.643266260548845707e+02
4.198494742486311715e+00,1.066232836909473924e+01,2.738424164141999739e+00,-9.999967716857106614e-01,-4.005637431407018550e-04,2.509216380524925682e-03,3.659940975846063793e+02
4.191237396716847918e+00,1.064037222218833456e+01,2.865158490396202406e+00,-9.999999106229038315e-01,-4.227933115178471378e-04,-0.000000000000000000e+00,3.676615691143281879e+02
4.176174891047959470e+00,1.060245147008783917e+01,3.013464175811125578e+00,-9.937617140703356444e-01,1.110473367861412874e-02,-1.109699983685480118e-01,3.693290406440499964e+02
4.152843866464062117e+00,1.054973928934360039e+01,3.181967040235953448e+00,-9.725393668169942663e-01,2.363511715766071497e-02,-2.315352267542538089e-01,3.709965121737718050e+02
4.121116919198707151e+00,1.048340860248007012e+01,3.369087125177617992e+00,-9.334265893118274260e-01,3.667043032998618807e-02,-3.568894533396900215e-01,3.726639837034936136e+02
4.081572063549284479e+00,1.040470654904020265e+01,3.572721430727001657e+00,-8.756755288725207587e-01,4.951741553604036006e-02,-4.803544458964255637e-01,3.743314552332154221e+02
4.035791522291533262e+00,1.031616725492752096e+01,3.787425751173891353e+00,-8.015109515547280683e-01,6.143625447480362267e-02,-5.948157539725570375e-01,3.759750505447324258e+02
3.983331146159005964e+00,1.021639916922944558e+01,4.017191303227057197e+00,-7.157950157334140862e-01,7.183626726349612301e-02,-6.946056767381396657e-01,3.776425220744542344e+02
3.925719486647353929e+00,1.010781375453353448e+01,4.256711118940613936e+00,-6.246050994892480279e-01,8.041014720861319742e-02,-7.767899831472568906e-01,3.793099936041760429e+02
3.863807153440841802e+00,9.991486954827680123e+00,4.503841276643811398e+00,-5.335785543036569711e-01,8.714309002340615840e-02,-8.412490762243913789e-01,3.809774651338978515e+02
3.798430720541572381e+00,9.868448308562818738e+00,4.756476814589031932e+00,-4.981816947511405469e-01,8.136213857089448498e-02,-8.632468948232898676e-01,3.826449366636196601e+02
3.730123359035034891e+00,9.739377714622737159e+00,5.011906727485202495e+00,-4.611195076002105875e-01,7.530920880955367658e-02,-8.841364842483417918e-01,3.843124081933414686e+02
3.689083826484190531e+00,9.661488055182525514e+00,5.158859754987585866e+00,-4.225247365395977117e-01,6.900598019993134380e-02,-9.037206546874926305e-01,3.852744993377056062e+02
3.614882141523550807e+00,9.520406796731627708e+00,5.409031451480996289e+00,-3.825640923073789224e-01,6.247967963999579571e-02,-9.218139752190324110e-01,3.869419708674274148e+02
3.537160891674558272e+00,9.372976181610368940e+00,5.650431437337979368e+00,-3.414357350265013746e-01,5.576267028470102693e-02,-9.382495208896364236e-01,3.886094423971492233e+02
3.455509856314124217e+00,9.218827037374513367e+00,5.878388501929257437e+00,-2.993650069305061612e-01,4.889175462242507236e-02,-9.528851919068941356e-01,3.902769139268710319e+02
3.369495399041419592e+00,9.057558948486786221e+00,6.088162615570203329e+00,-2.565985781864409399e-01,4.190721838129505411e-02,-9.656091107276481011e-01,3.919443854565928405e+02
3.278657964352761578e+00,8.888738390548732937e+00,6.274920663661029074e+00,-2.133973364227114700e-01,3.485166925966159956e-02,-9.763436577135672367e-01,3.936118569863146490e+02
3.182509424551584143e+00,8.711896714470682923e+00,6.433711704293587630e+00,-1.700284881454677821e-01,2.776874694362617760e-02,-9.850478211295872200e-01,3.952793285160364576e+02
3.080839689052090158e+00,8.526928606042266878e+00,6.559507821228939051e+00,-1.267574237209898591e-01,2.070179451059238340e-02,-9.917176973492298764e-01,3.969468000457582662e+02
2.974096485956056135e+00,8.334541985512725404e+00,6.649025464249649353e+00,-8.383991278232061362e-02,1.369258379711124456e-02,-9.963851575438145147e-01,3.986142715754800747e+02
2.900102266520015348e+00,8.201910888098176144e+00,6.684701596573928484e+00,-4.151514260016125196e-02,6.780178438134058100e-03,-9.991148693294656935e-01,3.997272476414645439e+02
2.785961683731194238e+00,7.997981715747050302e+00,6.703517336137559290e+00,-0.000000000000000000e+00,-0.000000000000000000e+00,-1.000000000000000000e+00,4.013947191711863525e+02
2.669306743153379458e+00,7.790047570136859001e+00,6.688719891291482256e+00,4.636427746339469302e-02,-1.331595570887214412e-02,-9.988358419174077074e-01,4.030621907009081610e+02
2.551142510584439194e+00,7.579437213623410940e+00,6.641170295915508781e+00,9.609700417885226609e-02,-2.759933986701680608e-02,-9.949892673927466236e-01,4.047296622306299696e+02
2.432506650870748466e+00,7.367525856241219806e+00,6.561380425057971699e+00,1.491317454005637033e-01,-4.283107222168074796e-02,-9.878892760659581107e-01,4.063971337603517782e+02
2.314435621406848220e+00,7.155622861797849232e+00,6.450781794958891702e+00,2.052630549589570530e-01,-5.895214803377928081e-02,-9.769297428736211097e-01,4.080646052900735867e+02
2.197955796900343817e+00,6.944902803456968421e+00,6.312820873277139810e+00,2.641143981995989209e-01,-7.585442545239606815e-02,-9.615038693645234780e-01,4.097320768197953953e+02
2.084093120360031470e+00,6.736437880588606930e+00,6.151895323728813203e+00,3.251139629812739851e-01,-9.337367836288432144e-02,-9.410538067844980148e-01,4.113995483495172039e+02
1.973891407103755435e+00,6.531279083406760222e+00,5.972288537445184176e+00,3.874867133745711345e-01,-1.112873141859253706e-01,-9.151334223267426626e-01,4.130670198792390124e+02
1.868421782699757783e+00,6.330486118446364330e+00,5.778188269744589434e+00,4.502711596955567552e-01,-1.293191902801094639e-01,-8.834774642127072308e-01,4.147344914089608210e+02
1.768788331008233738e+00,6.135132621138962072e+00,5.573708078707500846e+00,5.123664501218592182e-01,-1.471531387914178646e-01,-8.460653488551331813e-01,4.164019629386826296e+02
1.676133954330389475e+00,5.946311395013986534e+00,5.362908383910565568e+00,5.726090766323972403e-01,-1.644549968228255499e-01,-8.031646153673590582e-01,4.180694344684044381e+02
1.591646476387006404e+00,5.765139702683770295e+00,5.149817253126394156e+00,6.298699825018795329e-01,-1.809004959899357112e-01,-7.553401986480510200e-01,4.197369059981262467e+02
1.516565020306451794e+00,5.592764633790249462e+00,4.938451023403484186e+00,6.831552610599752606e-01,-1.962041833983012296e-01,-7.034222115508457218e-01,4.214043775278480553e+02
1.452186695427537089e+00,5.430368575229405970e+00,4.732834862092902384e+00,7.316906244391593317e-01,-2.101436813141587256e-01,-6.484353964055065145e-01,4.230718490575698638e+02
1.399873628524857416e+00,5.279174809223568410e+00,4.537023373080682376e+00,7.749734123114182527e-01,-2.225746242252942819e-01,-5.915038012230906528e-01,4.247393205872916724e+02
1.371411581255613132e+00,5.177475168580972564e+00,4.403578831011217609e+00,8.127848887987023652e-01,-2.334341905495889991e-01,-5.337501318247512838e-01,4.259606085468806782e+02
1.347338976921695020e+00,5.052170851543821506e+00,4.238703841009908047e+00,8.451660517079893076e-01,-2.427341549767768059e-01,-4.762084365569752564e-01,4.276280800766024868e+02
1.339527267813027889e+00,4.941814354180251279e+00,4.095242065633478035e+00,8.723679576372985744e-01,-2.505466216940154811e-01,-4.197624767001504331e-01,4.292955516063242953e+02
1.349672097402652593e+00,4.847851698496941530e+00,3.977566313962220157e+00,8.947904435958123903e-01,-2.569864250564664054e-01,-3.651137348639550972e-01,4.309630231360461039e+02
1.379921941084011783e+00,4.770840643020041405e+00,3.889338907895812270e+00,9.129215085791813067e-01,-2.621937197989293034e-01,-3.127759141486316508e-01,4.326304946657679125e+02
1.433227731480692269e+00,4.709490216450675781e+00,3.832687936113180704e+00,9.272855163728549455e-01,-2.663191047298917313e-01,-2.630887788960158957e-01,4.342979661954897210e+02
1.512995598839466105e+00,4.661606667167794704e+00,3.809060643244148281e+00,9.384039298646729144e-01,-2.695123455115875921e-01,-2.162432889857639207e-01,4.359654377252115296e+02
1.529795027306975586e+00,4.655669704330231973e+00,3.809934240332009558e+00,6.016786475589728234e-01,-1.728038623743228530e-01,-7.798215374174539694e-01,4.362284511827771780e+02
1.664281666197964471e+00,4.626229390626025229e+00,3.841528471781699761e+00,-0.000000000000000000e+00,-0.000000000000000000e+00,-1.000000000000000000e+00,4.378959227124989866e+02
1.830099714197297667e+00,4.602782289002361082e+00,3.895396488581229111e+00,-2.940596381292742787e-03,4.698174282040969152e-02,-9.988914198923120047e-01,4.395633942422207951e+02
2.028597014999280024e+00,4.580801993511524728e+00,3.960992353945479216e+00,-5.887778310006347611e-03,9.406870256117841333e-02,-9.955482978063036059e-01,4.412308657719426037e+02
2.155211533501900423e+00,4.567421749501828110e+00,3.996813950967307516e+00,-8.821788956750365243e-03,1.409452254714977371e-01,-9.899780903921011621e-01,4.421406157796808998e+02
2.420566277399994970e+00,4.535926778678376792e+00,4.047078604025372783e+00,-1.172313510397501000e-02,1.872998695120954571e-01,-9.822328272787903547e-01,4.438080873094027083e+02
2.716869513893712895e+00,4.491601913556489301e+00,4.066958426895222800e+00,-4.730092251022989698e-03,-8.028414844100014922e-03,-9.999565844487389166e-01,4.454755588391245169e+02
3.040107888094331745e+00,4.430202091335496029e+00,4.051724854121645514e+00,-6.095203118056234486e-03,1.481402672150744157e-02,-9.998716883236788977e-01,4.471430303688463255e+02
3.386254646569708093e+00,4.351635405252119781e+00,4.006744399827216974e+00,-7.477153113097061501e-03,3.798490143964563387e-02,-9.992503387259589198e-01,4.488105018985681340e+02
3.751631408173500493e+00,4.257855736010376368e+00,3.940233167933217651e+00,-8.873966771612630186e-03,6.145308292399296463e-02,-9.980705242180399894e-01,4.504779734282899426e+02
4.130994978172337184e+00,4.150754361416431948e+00,3.859376173241654051e+00,-1.028350632119836433e-02,8.518456538478753892e-02,-9.963121194274145997e-01,4.521454449580117512e+02
4.515829907717301417e+00,4.032173678419153084e+00,3.769443258350747783e+00,-1.170348193433708162e-02,1.091426074942359603e-01,-9.939572021671616575e-01,4.538129164877335597e+02
4.895983849014664990e+00,3.903955203876927182e+00,3.674736937416599680e+00,-1.313146495860010796e-02,1.332879269980603021e-01,-9.909903597637066408e-01,4.554803880174553683e+02
5.043785621190816748e+00,3.849336924263523141e+00,3.636155782381497836e+00,-1.456490407148524312e-02,1.575789458688632849e-01,-9.873989768012960688e-01,4.561518085127227096e+02
5.390364669180296886e+00,3.707688298040113573e+00,3.542285034531486687e+00,-1.600114421389517427e-02,1.819720842500062441e-01,-9.831734963563424357e-01,4.578192800424445181e+02
5.707204940745552513e+00,3.561157931730914772e+00,3.454039785911676486e+00,-1.743744805998202058e-02,2.064220998131999218e-01,-9.783076469668755548e-01,4.594867515721663267e+02
5.983853740409423416e+00,3.411720447810249635e+00,3.375731191208575233e+00,-1.887101968631929930e-02,2.308824675239248836e-01,-9.727986280860301260e-01,4.611542231018881353e+02
6.209667430311243130e+00,3.262101740079363932e+00,3.312169038642472252e+00,-2.029903001510582547e-02,2.553057932592799339e-01,-9.666472476082966780e-01,4.628216946316099438e+02
6.383243241806655810e+00,3.116482910724577504e+00,3.269153337103472445e+00,-2.171864352940289927e-02,2.796442533387704099e-01,-9.598580062164634441e-01,4.644891661613317524e+02
6.515998097989543325e+00,2.978680889467723691e+00,3.250664678478214498e+00,-2.312704569797157869e-02,3.038500508921093135e-01,-9.524391247371910563e-01,4.661566376910535610e+02
6.616840073876547379e+00,2.850329932772413866e+00,3.256006886219485086e+00,-2.452147050710030279e-02,3.278758791712449439e-01,-9.444025123546911926e-01,4.678241092207753695e+02
6.688620891894352383e+00,2.731994440013301162e+00,3.282195016908219909e+00,-2.589922747980840864e-02,3.516753814719500992e-01,-9.357636753382274630e-01,4.694915807504971781e+02
6.702295919804014623e+00,2.699611383709815460e+00,3.295319177112769893e+00,-2.725772757053146478e-02,3.752035972971921041e-01,-9.265415678008932510e-01,4.699905507602542798e+02
6.723569637553701739e+00,2.601999548981667409e+00,3.355013875129532419e+00,-2.859450735586920381e-02,3.984173847789390099e-01,-9.167583878290865851e-01,4.716580222899760884e+02
6.721686256338938570e+00,2.516043399849296147e+00,3.429088266889872560e+00,-2.990725099767529982e-02,4.212758101596259519e-01,-9.064393240102245342e-01,4.733254938196978969e+02
6.698982496311391976e+00,2.442458793903346415e+00,3.514909314015679520e+00,-3.119380953070477816e-02,4.437404962767512173e-01,-8.956122588548153240e-01,4.749929653494197055e+02
6.657692832862207588e+00,2.382007305329622682e+00,3.609904113283175953e+00,-3.245221711900837802e-02,4.657759234298858853e-01,-8.843074367871718300e-01,4.766604368791415141e+02
6.599961470914249340e+00,2.335500892830294273e+00,3.711546725037505823e+00,-3.368070402819537540e-02,4.873496776582614265e-01,-8.725571052157868879e-01,4.783279084088633226e+02
6.527853888049983233e+00,2.303806734654644472e+00,3.817345242030011576e+00,-3.487770616903217852e-02,5.084326432287457065e-01,-8.603951376616546520e-01,4.799953799385851312e+02
6.443368007805764464e+00,2.287852258728204191e+00,3.924829032479310253e+00,-3.604187117601915374e-02,5.289991379353605749e-01,-8.478566480165008468e-01,4.816628514683069398e+02
6.348445062766134406e+00,2.288630396399361722e+00,4.031536092049121223e+00,-3.717206108737725057e-02,5.490269915536850620e-01,-8.349776047416038738e-01,4.833303229980287483e+02
6.244980205709797616e+00,2.307205089011387766e+00,4.135000439992973398e+00,-3.826735178577653912e-02,5.684975693978595590e-01,-8.217944532399993340e-01,4.849977945277505569e+02
6.134832925978680684e+00,2.344717077356808677e+00,4.232739494946673453e+00,-3.932702943861683675e-02,5.873957443306653259e-01,-8.083437537939894835e-01,4.866652660574723654e+02
6.019837327475423550e+00,2.402390005081441071e+00,4.322241365749346365e+00,-4.035058424030640162e-02,6.057098217322965938e-01,-7.946618414196665592e-01,4.883327375871941740e+02
5.901812324232652784e+00,2.481536868279357044e+00,4.400951992223503417e+00,-3.430423212962199070e-02,4.235376762254629557e-01,-9.052287315786722299e-01,4.900002091169159826e+02
5.782571809327627932e+00,2.583566844864791268e+00,4.466262070082804847e+00,-2.628623700226777674e-02,2.117688420773800040e-01,-9.769662180799633111e-01,4.916676806466377911e+02
5.663934853083383736e+00,2.709992538852935784e+00,4.515493693093301175e+00,-1.741718878752641919e-02,0.000000000000000000e+00,-9.998483092623299262e-01,4.933351521763595997e+02
5.632677680422041533e+00,2.750295457203510985e+00,4.524075710349836577e+00,-2.129063795536638798e-05,-0.000000000000000000e+00,-9.999999997733544088e-01,4.937816894279857820e+02
5.518855260965998433e+00,2.925587160619484983e+00,4.538349837106009588e+00,3.990535107475306348e-03,7.430332966762309308e-04,-9.999917617316034235e-01,4.954491609577075906e+02
5.497513270899321292e+00,2.963976636778214768e+00,4.537931135352538448e+00,2.824278092260646897e-02,7.371172242494746993e-04,-9.996008213201684756e-01,4.957706171602995937e+02
5.389953016383350004e+00,3.186287252529646175e+00,4.520564908942683147e+00,5.332465324360335934e-02,7.305378527235588263e-04,-9.985769613158993474e-01,4.974380886900214023e+02
5.285771298127145634e+00,3.432439017812689563e+00,4.488674265749903469e+00,7.922955588519704773e-02,7.232490637289252676e-04,-9.968561352497291583e-01,4.991055602197432108e+02
5.184529179343999594e+00,3.699637896622744559e+00,4.445397571986856811e+00,1.059435885417312068e-01,7.152046384469760510e-04,-9.943718844221337561e-01,5.007730317494650194e+02
5.085781430351141275e+00,3.985201517007090910e+00,4.393814904676534461e+00,1.334446213521968405e-01,7.063589794591563879e-04,-9.910560196523509058e-01,5.024405032791868280e+02
4.989075041208461236e+00,4.286545435479249377e+00,4.336963819629832351e+00,1.617013992208560236e-01,6.966679622019978637e-04,-9.868394865142799954e-01,5.041079748089086365e+02
4.893947588090623135e+00,4.601169917104162899e+00,4.277854901744447602e+00,1.906727167513045385e-01,6.860899137637365211e-04,-9.816534237536722607e-01,5.057754463386304451e+02
4.799925448702111908e+00,4.926647164448156424e+00,4.219487177232671193e+00,2.203067116818062665e-01,6.745867092249728265e-04,-9.754304166472979043e-01,5.074429178683522537e+02
4.706521860746502917e+00,5.260608930939024042e+00,4.164863466677682702e+00,2.505403303834426443e-01,6.621249666297067708e-04,-9.681059365802298089e-01,5.091103893980740622e+02
4.613234816148265693e+00,5.600734456209267798e+00,4.117005757514694331e+00,2.812990223159156922e-01,6.486773113038897401e-04,-9.596199452188641787e-01,5.107778609277958708e+02
4.519544782389532500e+00,5.944738662712966359e+00,4.078970674634006421e+00,3.124967202653516352e-01,6.342236692181749645e-04,-9.499186268221799789e-01,5.124453324575176794e+02
4.424912240955561238e+00,6.290360554323941145e+00,4.053865128305152332e+00,3.440361586972305874e-01,6.187525383123976697e-04,-9.389561963447231596e-01,5.141128039872394311e+02
4.328689431721811864e+00,6.635237905651680812e+00,4.043428438901713662e+00,3.758095728451952278e-01,6.022621773194060130e-04,-9.266967153487604136e-01,5.157802755169611828e+02
4.230030252098130994e+00,6.976782351395951487e+00,4.046607460459073380e+00,4.076998058371156253e-01,5.847616449843961268e-04,-9.131158340397984574e-01,5.174477470466829345e+02
4.172643102447501917e+00,7.165283937311924589e+00,4.054765314296215450e+00,4.395818304566146972e-01,5.662716200441993879e-04,-8.982023678820183488e-01,5.183841045174731335e+02
4.066190176742224160e+00,7.492763772991152038e+00,4.078790317105989160e+00,4.713246670304558905e-01,5.468249351056892870e-04,-8.819596131519402693e-01,5.200515760471948852e+02
3.954848293919234870e+00,7.809472745715287267e+00,4.110360234240407529e+00,5.027936512046239370e-01,5.264667664268635541e-04,-8.644063090590367038e-01,5.217190475769166369e+02
3.837527627164774024e+00,8.112590458223252199e+00,4.147203202284359236e+00,5.338529775254176046e-01,5.052544367001782005e-04,-8.455771656715902473e-01,5.233865191066383886e+02
3.713084881178706276e+00,8.399235370613400420e+00,4.187074352350599327e+00,5.643684197441115602e-01,4.832568086039732715e-04,-8.255228968710626170e-01,5.250539906363601403e+02
3.580316821795619386e+00,8.666450429111074882e+00,4.227744317825542275e+00,5.942101096568968011e-01,4.605532716162909213e-04,-8.043097248400161714e-01,5.267214621660818921e+02
3.438622754638856360e+00,8.911680663433541483e+00,4.267096083318578259e+00,6.232552457143710756e-01,4.372323511329103090e-04,-7.820183549747347085e-01,5.283889336958036438e+02
3.288675165969772163e+00,9.133245890689035917e+00,4.303222408764647788e+00,6.513906023496197628e-01,4.133899945889304289e-04,-7.587424545122750663e-01,5.300564052255253955e+02
3.131760645648169916e+00,9.329829766459981855e+00,4.334307803755127253e+00,6.785147215084038619e-01,3.891276112652971848e-04,-7.345867009932016689e-01,5.317238767552471472e+02
2.969118717661376472e+00,9.499977618458945727e+00,4.358510971569539372e+00,7.045396883553235456e-01,3.645499583430968646e-04,-7.096644944165597657e-01,5.333913482849688990e+02
2.801947158379514136e+00,9.642089314932128730e+00,4.373955382937779746e+00,7.293924214167802900e-01,3.397629738756266981e-04,-6.840954466599581396e-01,5.350588198146906507e+02
