2.435829516022382180e+00,2.940262455201884340e+00,4.235519287296097168e+00,-3.423585689105079211e-01,-2.834512710925188861e-01,-8.957934958513510404e-01,1.735542240837083909e+02
2.794410158485231221e+00,2.769990289268930983e+00,4.394599642686646490e+00,-5.349055427136901741e-01,-1.124817497029415719e-01,-8.373911370189782710e-01,1.753355451126585081e+02
3.142707113276772990e+00,2.591972000734323434e+00,4.526421134911286615e+00,-6.814916481966857287e-01,5.479247668699065849e-02,-7.297718259405950869e-01,1.771168661416086252e+02
3.474799427307525335e+00,2.408269457526121649e+00,4.631109011094300953e+00,-6.383709809993243223e-01,1.136207383454100328e-01,-7.612968004896673024e-01,1.788981871705587423e+02
3.784761681862515825e+00,2.220979017005112244e+00,4.708721806892710582e+00,-5.881141232437087085e-01,1.753679680588628442e-01,-7.895364803605907644e-01,1.806795081995088594e+02
4.066654426866484151e+00,2.032233728996106770e+00,4.759251490410932206e+00,-5.308519002550398103e-01,2.388296178177635176e-01,-8.131154122562395115e-01,1.824608292284589766e+02
4.314510833548708568e+00,1.844200318598571142e+00,4.783153087121799985e+00,-4.672431738475478213e-01,3.024840122779400287e-01,-8.307750831657803037e-01,1.842421502574090937e+02
4.509249316477902170e+00,1.674714182467927248e+00,4.781047478794412164e+00,-3.984967425128434493e-01,3.646337179241626036e-01,-8.415715049592963348e-01,1.858765133944416732e+02
4.683877277621371960e+00,1.498274869694038003e+00,4.744073148109142046e+00,-3.262813093903647599e-01,4.236092065092356695e-01,-8.450418612726383616e-01,1.876578344233917619e+02
4.817063866098747482e+00,1.336675228695066941e+00,4.660960874130205767e+00,-2.525312048866140135e-01,4.779840049198347263e-01,-8.412843048573475091e-01,1.894391554523418790e+02
4.870142220968532776e+00,1.262149326509021785e+00,4.604671161216796094e+00,-1.791977645613677672e-01,5.267401183411776211e-01,-8.309229861462076316e-01,1.903236221652347524e+02
4.950734074480796387e+00,1.124751512127713182e+00,4.469747247186704797e+00,-1.080169298825400942e-01,5.693414243675199993e-01,-8.149740396834208589e-01,1.921049431941848411e+02
4.989683569424959053e+00,1.007426362622458660e+00,4.311570684257673314e+00,-4.035058424030640162e-02,6.057098217322965938e-01,-7.946618414196665592e-01,1.938862642231349582e+02
4.987758529573302901e+00,9.104358673254904222e-01,4.145901038494532287e+00,-3.904990500998653524e-02,5.867841382465543987e-01,-8.088012611395705154e-01,1.956675852520850754e+02
4.964005208005858094e+00,8.518130589460267688e-01,4.026917828336337379e+00,-3.771390960939770276e-02,5.673340214945657989e-01,-8.226237104999938321e-01,1.969677631904428097e+02
4.902447803148291428e+00,7.904276222408355146e-01,3.877034500326884903e+00,-3.634408132780793388e-02,5.473807689933718468e-01,-8.360941343465235764e-01,1.987490842193928984e+02
4.804724693014268411e+00,7.557769684697236423e-01,3.753927588809415905e+00,-3.494212277689499185e-02,5.269489187421881882e-01,-8.491783588223872359e-01,2.005304052483430155e+02
4.672654825630973896e+00,7.505054818612633127e-01,3.669768763794142075e+00,-3.350994909916221731e-02,5.060661546755412799e-01,-8.618434488950313943e-01,2.023117262772931326e+02
4.509924375308861144e+00,7.774361671449635525e-01,3.631464839269384459e+00,-3.204967771922802300e-02,4.847631611879897329e-01,-8.740580619805075058e-01,2.040930473062432497e+02
4.323991315812158120e+00,8.397174019598889760e-01,3.635314139765622787e+00,-3.056361468839706788e-02,4.630734273525738409e-01,-8.857927897296972164e-01,2.058743683351933669e+02
4.124205484264797050e+00,9.406395495737679413e-01,3.672358014028161310e+00,-2.905423777670547783e-02,4.410330029817258191e-01,-8.970204800048524607e-01,2.076556893641434840e+02
3.919929310594848726e+00,1.083468797281953888e+00,3.733719423758680378e+00,-2.752417656997045020e-02,4.186802102040903528e-01,-9.077165313508418487e-01,2.094370103930936011e+02
3.718044594976630091e+00,1.269398349626265299e+00,3.811098943783592041e+00,-2.597618992712816960e-02,3.960553156779778039e-01,-9.178591528552118017e-01,2.112183314220437182e+02
3.582248249713915200e+00,1.417452294339935248e+00,3.869242915800262583e+00,-2.441314124024449722e-02,3.732001698571669190e-01,-9.274295831778095467e-01,2.124368578548722155e+02
3.386545668572727763e+00,1.660215240380461088e+00,3.956206679203105203e+00,-2.283797201141302829e-02,3.501578207990110880e-01,-9.364122636786073040e-01,2.142181788838223042e+02
3.193992514156817286e+00,1.934843082461531694e+00,4.040660961892716507e+00,-2.125367431350055555e-02,3.269721108013590727e-01,-9.447949619289253143e-01,2.159994999127724213e+02
3.002774793964385402e+00,2.237284193004822175e+00,4.108662759813687337e+00,-1.966326273265048968e-02,3.036872646328159786e-01,-9.525688433906207564e-01,2.177808209417225385e+02
2.905379851711001216e+00,2.399785471874080756e+00,4.133712081680979367e+00,-1.806974639820828690e-02,2.803474782585816949e-01,-9.597284906155274520e-01,2.186882239935353027e+02
2.714880351146308435e+00,2.734851929120092784e+00,4.161284528976878505e+00,-1.647610169029082444e-02,2.569965167603624479e-01,-9.662718708759621133e-01,2.204695450224854198e+02
2.525706242547400837e+00,3.094579084982202577e+00,4.157815657170106149e+00,-1.488524617795748510e-02,2.336773296227540320e-01,-9.722002546114665300e-01,2.222508660514355370e+02
2.337978030149360897e+00,3.477905745338222943e+00,4.126392876916625596e+00,-1.330001428446297290e-02,2.104316907473871845e-01,-9.775180884000198578e-01,2.240321870803856541e+02
2.151807141900684339e+00,3.883794020665241487e+00,4.070034870668783000e+00,-1.172313510397501000e-02,1.872998695120954571e-01,-9.822328272787903547e-01,2.258135081093357712e+02
2.061681794478648300e+00,4.088396270238244590e+00,4.035245167212710093e+00,-4.730092251022989698e-03,-8.028414844100014922e-03,-9.999565844487389166e-01,2.266822215632544726e+02
1.878668287694621020e+00,4.520348780399122468e+00,3.949033388600589944e+00,1.098266219942418270e-01,-7.693699185856797858e-03,-9.939209828221614584e-01,2.284635425922045897e+02
1.832356150681596407e+00,4.633196489672723573e+00,3.923963264082324098e+00,2.398217404176967438e-01,-7.183346306720898855e-03,-9.707903647847276885e-01,2.289179154239099034e+02
1.653009730641381347e+00,5.083827113461397929e+00,3.819063684151291937e+00,3.804548497435746857e-01,-6.462954000630547619e-03,-9.247769123048973361e-01,2.306992364528600206e+02
1.481281652028249241e+00,5.546612491236539988e+00,3.700951362654906429e+00,5.226519974144404612e-01,-5.528325928480549122e-03,-8.525281973114579026e-01,2.324805574818101377e+02
1.324311056290008004e+00,6.015659787627754440e+00,3.567815511214487589e+00,6.547807025223478794e-01,-4.422660761797234802e-03,-7.558059748878191986e-01,2.342618785107602548e+02
1.189197141142851688e+00,6.485034140131575420e+00,3.417808404172165471e+00,7.666213660094719495e-01,-3.231477039869875157e-03,-6.420913009330621035e-01,2.360431995397103719e+02
1.083010596113272550e+00,6.948752831842158528e+00,3.249040835731063392e+00,8.529796206271430536e-01,-2.052384697064667252e-03,-5.219401828867273885e-01,2.378245205686604891e+02
1.010579604019674171e+00,7.400736376729262211e+00,3.061262057926822600e+00,9.143094913343133845e-01,-9.617124201272912298e-04,-4.050150974534286186e-01,2.396058415976106062e+02
9.722714715336560065e-01,7.834779622896228979e+00,2.857543746952281971e+00,9.546779411463374165e-01,0.000000000000000000e+00,-2.976407712135392125e-01,2.413871626265607233e+02
9.662438347640984748e-01,8.245769392115654739e+00,2.642778541166845407e+00,9.269008696384679613e-01,-2.346003348829354129e-01,-2.929461737866982385e-01,2.431684836555108404e+02
9.907097415434347187e-01,8.630882785238839006e+00,2.422183056156430592e+00,8.407834679498529251e-01,-4.692006662547724138e-01,-2.700627608692030557e-01,2.449498046844609576e+02
1.043933186810563463e+00,8.988433171357955942e+00,2.201135141705923282e+00,7.112043967090111440e-01,-6.632686733194039785e-01,-2.329441415766644874e-01,2.467311257134110747e+02
1.123407899277775401e+00,9.314428571355247044e+00,1.986602525925178497e+00,7.240968878289887334e-01,-6.784441656204773796e-01,-1.240854994425502483e-01,2.484988027799477663e+02
1.228687799747251175e+00,9.612186284900765543e+00,1.780643505420915096e+00,7.276482864208582146e-01,-6.857309364331088952e-01,1.735091027468857808e-02,2.502801238088978835e+02
1.357695581493800985e+00,9.877226720143628569e+00,1.590374092530089101e+00,7.112310978624517555e-01,-6.752351375968801417e-01,1.954682439372033287e-01,2.520614448378480006e+02
1.508795533884042417e+00,1.010778630980697379e+01,1.421246697025515759e+00,6.607317332240684182e-01,-6.334547401617126594e-01,4.027017120368074354e-01,2.538427658667981177e+02
1.680369619867649877e+00,1.030207734375698081e+01,1.278765708917432242e+00,5.673764665889000636e-01,-5.513627613810125894e-01,6.116232913513017788e-01,2.556240868957482348e+02
1.870530242474725213e+00,1.045827787801852082e+01,1.168063777476991749e+00,4.404878190989601205e-01,-4.366838520714744765e-01,7.843963886744126368e-01,2.574054079246983520e+02
2.076578377936088682e+00,1.057448292691839775e+01,1.090424925032726033e+00,3.048133240614275818e-01,-3.121323177704891649e-01,8.998123435905096557e-01,2.591867289536484691e+02
2.295028195043451014e+00,1.064867550565720045e+01,1.040672706859988139e+00,1.819120690269734053e-01,-1.981578721132134513e-01,9.631414521563741449e-01,2.609680499825985862e+02
2.522138316205090991e+00,1.067877873934537014e+01,1.010646989716998734e+00,8.045520856917853791e-02,-1.034001502010568063e-01,9.913805366016062992e-01,2.627493710115487033e+02
2.754159077840299563e+00,1.066269620942852825e+01,9.922361403975167304e-01,0.000000000000000000e+00,-2.786260007479053613e-02,9.996117623943168162e-01,2.645306920404988205e+02
2.987876334840306125e+00,1.059967806193485984e+01,9.793118743419518824e-01,-2.820080077868634266e-04,-2.686789531752743071e-02,9.996389531589342514e-01,2.663120130694489376e+02
3.037353117653863510e+00,1.058117916652719082e+01,9.769534821408926151e-01,-5.640235595674661243e-04,-2.587313414490831701e-02,9.996650753161999692e-01,2.666889103184875012e+02
3.270391982600931335e+00,1.047134841403115502e+01,9.674381474200988151e-01,-8.460457505386197738e-04,-2.487831974607819865e-02,9.996901286964876565e-01,2.684702313474376183e+02
3.501121371275337957e+00,1.032055148395543398e+01,9.609146730704463124e-01,-1.128073675763491875e-03,-2.388345531094031651e-02,9.997141131404480019e-01,2.702515523763877354e+02
3.728042572026041501e+00,1.013205190413977341e+01,9.571483748944151770e-01,-1.410106430186116059e-03,-2.288854403010501595e-02,9.997370284990135803e-01,2.720328734053378525e+02
3.949686039362276802e+00,9.909084801740856818e+00,9.559113475356393330e-01,-1.692143108645907277e-03,-2.189358909483861415e-02,9.997588746334018506e-01,2.738141944342879697e+02
4.164608633174497143e+00,9.654860017812804784e+00,9.569819041459952658e-01,-1.974182805892181220e-03,-2.089859369701223962e-02,9.997796514151185976e-01,2.755955154632380868e+02
4.371390936182788955e+00,9.372565214524978927e+00,9.601440313412329397e-01,-2.256224616598677749e-03,-1.990356102905064747e-02,9.997993587259607073e-01,2.773768364921882039e+02
4.568634645041368181e+00,9.065368977674493678e+00,9.651868581052031049e-01,-2.538267635378087684e-03,-1.890849428388103812e-02,9.998179964580190537e-01,2.791581575211383210e+02
4.754960030680423166e+00,8.736423917176573184e+00,9.719041373370650438e-01,-2.820310956796580684e-03,-1.791339665488178926e-02,9.998355645136813852e-01,2.809394785500884382e+02
4.929003463612125380e+00,8.388869768243482739e+00,9.800937387669996781e-01,-3.102353675388339407e-03,-1.691827133583127807e-02,9.998520628056333237e-01,2.827207995790385553e+02
5.089415000066595418e+00,8.025836495991836017e+00,9.895571519937094163e-01,-3.384394885670089555e-03,-1.592312152085659238e-02,9.998674912568614737e-01,2.845021206079886724e+02
5.234856024955933052e+00,7.650447406248999549e+00,1.000098998421744989e+00,-3.666433682155637724e-03,-1.492795040438229560e-02,9.998818498006544209e-01,2.862834416369387895e+02
5.363996947790183434e+00,7.265822265362460897e+00,1.011526550898650623e+00,-3.948469159370402749e-03,-1.393276118107915351e-02,9.998951383806046200e-01,2.880647626658889067e+02
5.475514947789006825e+00,6.875080431850911111e+00,1.023649259871058481e+00,-4.230500411865951819e-03,-1.293755704581284020e-02,9.999073569506085057e-01,2.898460836948390238e+02
5.568091764546038824e+00,6.481344002773181678e+00,1.036278284894732060e+00,-4.512526534234533558e-03,-1.194234119359268050e-02,9.999185054748680468e-01,2.916274047237891409e+02
5.640411530710356836e+00,6.087740977731016301e+00,1.049226030346520178e+00,-4.794546621123614571e-03,-1.094711681952034374e-02,9.999285839278910792e-01,2.934087257527392580e+02
5.691158643252991034e+00,5.697408443462733452e+00,1.062305684196695577e+00,-5.076559767250408625e-03,-9.951887118738575802e-03,9.999375922944918615e-01,2.951900467816893752e+02
5.719015669983999572e+00,5.313495782028633485e+00,1.075330758707803147e+00,-5.358565067416402351e-03,-8.956655286379887684e-03,9.999455305697901863e-01,2.969713678106394923e+02
5.722661288077300235e+00,4.939167905635601485e+00,1.088114631930818366e+00,-5.640561616521892231e-03,-7.961424517515292704e-03,9.999523987592120466e-01,2.987526888395896094e+02
5.700768251447713375e+00,4.577608521197193525e+00,1.100470088871299046e+00,-5.922548509580492955e-03,-6.966198007103003784e-03,9.999581968784883035e-01,3.005340098685397265e+02
5.652001383907000687e+00,4.232023427777013680e+00,1.112208861197388154e+00,-6.204524841733670935e-03,-5.970978949937168039e-03,9.999629249536543529e-01,3.023153308974898437e+02
5.575015595103447019e+00,3.905643850117508808e+00,1.123141164358077093e+00,-6.486489708265251800e-03,-4.975770540596599623e-03,9.999665830210486828e-01,3.040966519264399608e+02
5.468453916323139374e+00,3.601729811513004087e+00,1.133075230973674685e+00,-6.768442204615930484e-03,-3.980575973393516917e-03,9.999691711273116512e-01,3.058779729553900779e+02
5.330945553300403539e+00,3.323573549345500311e+00,1.141816839351117885e+00,-7.050381426397785666e-03,-2.985398442322287956e-03,9.999706893293837107e-01,3.076592939843401950e+02
5.161103953249914333e+00,3.074502976664636567e+00,1.149168835964797797e+00,-7.332306469408761233e-03,-1.990241141008210115e-03,9.999711376945032981e-01,3.094406150132903122e+02
4.957524883393865878e+00,2.857885193258814738e+00,1.154930650728623664e+00,-7.614216429647175516e-03,-9.951072626562809057e-04,9.999705163002048369e-01,3.112219360422404293e+02
4.736328862454097788e+00,2.686665536377812025e+00,1.158750296450661077e+00,-7.896110403326194946e-03,0.000000000000000000e+00,9.999688252343162942e-01,3.128877211527674831e+02
4.467071311606909845e+00,2.539308877240721074e+00,1.162277139541930904e+00,-3.942763369087667717e-03,0.000000000000000000e+00,9.999922272783001720e-01,3.146690421817176002e+02
4.166369992553518919e+00,2.430041728124145983e+00,1.166923217529848067e+00,1.064529442313578632e-05,0.000000000000000000e+00,9.999999999433388798e-01,3.164503632106677173e+02
3.839221817199318654e+00,2.357870859443484512e+00,1.171866676603234403e+00,5.079763683118018909e-03,0.000000000000000000e+00,9.999870979172299501e-01,3.182316842396178345e+02
3.490568421632963325e+00,2.321807118205363896e+00,1.174319300638372532e+00,1.014875153428117759e-02,-0.000000000000000000e+00,9.999485000950276703e-01,3.200130052685679516e+02
3.294831924066895290e+00,2.314803091157927817e+00,1.174206907911559350e+00,3.727517265950601177e-01,-9.345036034331518022e-04,9.279306423561066719e-01,3.209803534475504989e+02
2.926650677065115058e+00,2.323891624628021013e+00,1.171310969878409214e+00,7.335654087661361844e-01,-1.869007177561761738e-03,6.796162872341582339e-01,3.227616744765006160e+02
2.550198573899584709e+00,2.365377803908028209e+00,1.164664826435164668e+00,9.303527144256833470e-01,-2.383318412293171547e-03,3.666580785338139914e-01,3.245429955054507332e+02
2.171412382739315472e+00,2.437529864654614631e+00,1.153863335878252627e+00,-1.421071371866469424e-01,-8.936875034168503262e-01,4.255915974231313514e-01,3.263243165344008503e+02
1.797498616344009870e+00,2.538638976048340545e+00,1.136912887940443095e+00,5.286362030106785516e-04,-0.000000000000000000e+00,9.999998602718727092e-01,3.281056375633509674e+02
1.498840383572108026e+00,2.640268735346175788e+00,1.117799116962890249e+00,2.190992554672726578e-01,-9.669741596199774372e-03,9.756546583454360766e-01,3.295670354476700936e+02
1.151893469312137208e+00,2.783565718896016339e+00,1.089692455318865161e+00,4.745094649274793630e-01,-2.097086822704653797e-02,8.800005627157525545e-01,3.313483564766202107e+02
8.321455746585381119e-01,2.946028402463579443e+00,1.058807073100818341e+00,7.114375272340214273e-01,-3.145630250571533615e-02,7.020449742543634075e-01,3.331296775055703279e+02
5.475059464386109465e-01,3.123176768774613699e+00,1.028514472830648785e+00,8.745894677226951908e-01,-3.867896690289741174e-02,4.833189427984974640e-01,3.349109985345204450e+02
3.022276001935966794e-01,3.307551840285133604e+00,1.003201616580650546e+00,9.590437976337161663e-01,-4.241982833310840167e-02,2.800634792051425737e-01,3.366923195634705621e+02
9.611641602866249912e-02,3.487997037395485389e+00,9.914935433611412607e-01,9.691893652638661205e-01,-6.385668781947130557e-02,2.378955604464928208e-01,3.384736405924206792e+02
-4.045669687078835147e-02,3.622324206382125045e+00,9.984499484213629206e-01,9.772206008980016678e-01,-8.563099686166406044e-02,1.941834945535438339e-01,3.398781442743159573e+02
-1.764648017000235158e-01,3.775886815069347868e+00,1.042392384833177532e+00,9.829385694027670262e-01,-1.075856256127833838e-01,1.491881427659302872e-01,3.416594653032660744e+02
-2.628063300427561089e-01,3.902288338987992766e+00,1.143271792590686342e+00,9.861863094003089358e-01,-1.295504541758769890e-01,1.032145482682656351e-01,3.434407863322161916e+02
-2.712638567750348950e-01,3.917940702802103825e+00,1.162278069520890744e+00,9.868585501819463479e-01,-1.513482968500091674e-01,5.660295905152297469e-02,3.436929872762075320e+02
-3.016351162423754340e-01,4.008310428959143579e+00,1.325358772702807331e+00,9.849087050973949209e-01,-1.728016888349543922e-01,9.716941862558623258e-03,3.454743083051576491e+02
-2.946243924097959876e-01,4.048236664735616053e+00,1.454908008399724118e+00,9.803522857805485602e-01,-1.937399621838687969e-01,-3.707051143222558215e-02,3.466359516685154745e+02
-2.464374283862439119e-01,4.079175588782496753e+00,1.675878015453526215e+00,9.732662910880974794e-01,-2.140059690311077734e-01,-8.339167734657627895e-02,3.484172726974655916e+02
-1.523642150353529956e-01,4.068711647686972910e+00,1.923523248716925593e+00,9.637846260958874423e-01,-2.334618431625812840e-01,-1.288982633255424115e-01,3.501985937264157087e+02
-2.080216883617911836e-02,4.018160570362832473e+00,2.192047739491330471e+00,9.520900991191029172e-01,-2.519933213800779059e-01,-1.732737981900712432e-01,3.519799147553658258e+02
1.399287653235219697e-01,3.928853998551977256e+00,2.475706853313753619e+00,9.384039298646729144e-01,-2.695123455115875921e-01,-2.162432889857639207e-01,3.537612357843159430e+02
3.254044349376089551e-01,3.804002237314509038e+00,2.766576862949816640e+00,9.073338641960919659e-01,-2.605705351722189533e-01,-3.299215892951706808e-01,3.555425568132660601e+02
5.389483783312271070e-01,3.650524175023523998e+00,3.052319163816242131e+00,8.548286951517645171e-01,-2.454696813048352355e-01,-4.571788900476861928e-01,3.573238778422161772e+02
7.844964737394168885e-01,3.477147198041882881e+00,3.320841662881307776e+00,7.750608286413664949e-01,-2.225368840400007708e-01,-5.914034554747932271e-01,3.591051988711662943e+02
1.059435366451020988e+00,3.292573839686057546e+00,3.564960773758770518e+00,6.660557402284504880e-01,-1.912067535437808885e-01,-7.209783133409622957e-01,3.608865199001164115e+02
1.357947916954992174e+00,3.106118600371462257e+00,3.781210970690203066e+00,5.329799645583772616e-01,-1.529654032553843801e-01,-8.321862428484795293e-01,3.626678409290665286e+02
1.386317555483384423e+00,3.089134466052394057e+00,3.799729040504152611e+00,3.878586508174484693e-01,-1.112684428828917133e-01,-9.149781421457482411e-01,3.628314331845448351e+02
1.702544499578456216e+00,2.911825286385761213e+00,3.986921327012905358e+00,2.446801098063282887e-01,-7.013419546885225897e-02,-9.670640301919516402e-01,3.646127542134949522e+02
1.722684749370954060e+00,2.901262159766031967e+00,3.997679887002490329e+00,1.139211699523062782e-01,-3.257131735106027354e-02,-9.929557272722254746e-01,3.647236501653757728e+02
2.051017513979466411e+00,2.743371886535932891e+00,4.157537836655952113e+00,5.300273656876602468e-04,0.000000000000000000e+00,-9.999998595354860909e-01,3.665049711943258899e+02
2.387136836702446807e+00,2.611443163939737744e+00,4.293996389948775416e+00,4.558299356822271631e-04,0.000000000000000000e+00,-9.999998961095296623e-01,3.682862922232760070e+02
2.726510288909527180e+00,2.509418646991717239e+00,4.411033682386238830e+00,3.816325006755566453e-04,0.000000000000000000e+00,-9.999999271783146515e-01,3.700676132522261241e+02
3.062974189050879925e+00,2.439523199320042135e+00,4.510994197913189119e+00,3.074350618930769808e-04,0.000000000000000000e+00,-9.999999527418401701e-01,3.718489342811762413e+02
3.389543001690125568e+00,2.403167811082736804e+00,4.595387484062719352e+00,2.332376205602168908e-04,0.000000000000000000e+00,-9.999999728001057742e-01,3.736302553101263584e+02
3.633202850805110184e+00,2.396549126445185696e+00,4.651921196192325247e+00,1.590401779024050151e-04,0.000000000000000000e+00,-9.999999873531109085e-01,3.750129911156618618e+02
3.928146245667466285e+00,2.417226825619951835e+00,4.714453808934851331e+00,8.484273514507018337e-05,0.000000000000000000e+00,-9.999999964008551290e-01,3.767943121446119790e+02
4.194756498351448037e+00,2.475378369596551220e+00,4.762464654556042731e+00,1.064529351364108455e-05,0.000000000000000000e+00,-9.999999999433388798e-01,3.785756331735620961e+02
4.415810673240755158e+00,2.562920309337703983e+00,4.789375958072650263e+00,-2.129063795536638798e-05,-0.000000000000000000e+00,-9.999999997733544088e-01,3.802394897383734929e+02
4.619898966269813556e+00,2.692379523444099032e+00,4.792162044854268999e+00,3.990535107475306348e-03,7.430332966762309308e-04,-9.999917617316034235e-01,3.820208107673236100e+02
4.788041920415859742e+00,2.859168510201467672e+00,4.762462489125461218e+00,-1.741718878752641919e-02,0.000000000000000000e+00,-9.998483092623299262e-01,3.838021317962737271e+02
4.921675671637504301e+00,3.060385225977622525e+00,4.698250913671786932e+00,-1.166229053497934431e-01,1.453210895803141002e-03,-9.931752041436926470e-01,3.855834528252238442e+02
5.023559646213096030e+00,3.292088652938289783e+00,4.600862096461742823e+00,-2.330517784304373952e-01,3.161998407494058961e-03,-9.724591869772640784e-01,3.873647738541739614e+02
5.096356860311379577e+00,3.550350474712027804e+00,4.472814945641283124e+00,-3.653084451379126629e-01,5.107686760594749679e-03,-9.308725215876105796e-01,3.891460948831240785e+02
5.142638512233592252e+00,3.831251700848927744e+00,4.316552991954267782e+00,-5.074157548671753837e-01,7.204541247922723220e-03,-8.616712518692853928e-01,3.909274159120741956e+02
5.164888384426483015e+00,4.130879273257974660e+00,4.134450396439515174e+00,-6.479699131393963363e-01,9.286536700217921589e-03,-7.616093171057183309e-01,3.927087369410243127e+02
5.165507061589697635e+00,4.445322649488801403e+00,3.928817787602885581e+00,-7.726992857677600357e-01,1.114384397455706228e-02,-6.346744271793721692e-01,3.944900579699744299e+02
5.146815971695790637e+00,4.770670360582147218e+00,3.701907942388786399e+00,-8.702870016690882338e-01,1.260794697413963189e-02,-4.923835643062488554e-01,3.962713789989245470e+02
5.111061256420676102e+00,5.103006541153329856e+00,3.455921324917722082e+00,-9.369949837620338284e-01,1.362049769084017724e-02,-3.490771869478724865e-01,3.980527000278746641e+02
5.060417477170200407e+00,5.438407429301848950e+00,3.193011496606980248e+00,-9.762670977790591786e-01,1.422899240819573870e-02,-2.161020350878274932e-01,3.998340210568247812e+02
4.996991162585646684e+00,5.772937833868298618e+00,2.915290410975657664e+00,-9.949496713917591606e-01,1.453210848594597808e-02,-9.931751718797218742e-02,4.016153420857748984e+02
4.922824203117160735e+00,6.102647566487538811e+00,2.624833606151514065e+00,-9.998929794933587578e-01,1.462974913980168157e-02,0.000000000000000000e+00,4.033966631147250155e+02
4.839897097969062756e+00,6.423567835814257165e+00,2.323685307846166559e+00,-9.882384432012463193e-01,1.515113070778788540e-01,-2.071480646131554706e-02,4.051779841436751326e+02
4.750132059444139188e+00,6.731707601223427595e+00,2.013863455345199061e+00,-9.558092131084979792e-01,2.909910597913610841e-01,-4.186826075220047294e-02,4.069593051726252497e+02
4.655395979444960197e+00,7.023049883213575484e+00,1.697364662870157304e+00,-9.033522201396947393e-01,4.243734647388273107e-01,-6.214441885034979046e-02,4.087406262015753668e+02
4.563731219540398953e+00,7.278046635388617958e+00,1.396345990089561395e+00,-8.351919860094663139e-01,5.440521584196161831e-01,-8.038404956532353707e-02,4.104110800636731824e+02
4.462319751902123599e+00,7.526808932564020616e+00,1.075614711168437543e+00,-8.434668156830698038e-01,5.363281746151027374e-01,3.026251733571023311e-02,4.121924010926232995e+02
4.351654747438592707e+00,7.747686680218454747e+00,7.653822472048975589e-01,-8.390641695114481324e-01,5.172214066366367380e-01,1.686811665802758764e-01,4.139737221215734166e+02
4.223916160770531114e+00,7.937494599953279995e+00,4.789771584658542025e-01,-8.109253787728308849e-01,4.796125202010028676e-01,3.352191231546665096e-01,4.157550431505235338e+02
4.071220512641009037e+00,8.093069079208685679e+00,2.297865877877430518e-01,-7.460575730295083696e-01,4.163905681106120915e-01,5.196315930674745287e-01,4.175363641794736509e+02
3.885607868595996717e+00,8.211265415548121283e+00,3.128917454905789930e-02,-6.380968342908077684e-01,3.263718495047173707e-01,6.973620622882490405e-01,4.193176852084237680e+02
3.664451743843775144e+00,8.289350948312197431e+00,-1.030299425248701051e-01,-4.973717270106353672e-01,2.195949094118321843e-01,8.392850772716426988e-01,4.210990062373738851e+02
3.504386717421046349e+00,8.321099718768701692e+00,-1.580314634643221472e-01,-3.475394621867164413e-01,1.129155895283006916e-01,9.308417652127799480e-01,4.222711576868736074e+02
3.250391673705927520e+00,8.338110646801005998e+00,-2.027614588034199750e-01,-2.097660528721703443e-01,1.923111638066319143e-02,9.775624620581454538e-01,4.240524787158237245e+02
2.991673089093485949e+00,8.310151274255309417e+00,-2.134442720758738810e-01,-9.371854006730931386e-02,-5.697943335477715504e-02,9.939668905060272674e-01,4.258337997447738417e+02
2.740863035670023873e+00,8.235697740434080316e+00,-2.140682206316130709e-01,0.000000000000000000e+00,-1.168706797253571267e-01,9.931471412739065752e-01,4.276151207737239588e+02
2.732826688171645202e+00,8.232468610631933359e+00,-2.141026953074506578e-01,5.852172849897627899e-02,-5.932126524122717515e-02,9.965220493213745590e-01,4.276738032364898459e+02
2.500869971286320048e+00,8.110593283364494255e+00,-2.245758070971075049e-01,1.166485428797343071e-01,-1.371546479450316434e-03,9.931723094731795820e-01,4.294551242654399630e+02
2.295501234544249147e+00,7.942464367053111651e+00,-2.567004168511052287e-01,1.069778166933780389e-01,-1.262874598560440997e-03,9.942606056176953588e-01,4.312364452943900801e+02
2.119792308818764681e+00,7.732743064661133481e+00,-3.101945547115812496e-01,9.728774842389938116e-02,-1.153979605038935258e-03,9.952556266295002896e-01,4.330177663233401972e+02
1.974640278748574618e+00,7.487832119514620466e+00,-3.788980236407922253e-01,8.758106090882679384e-02,-1.044892082794505366e-03,9.961568480769581457e-01,4.347990873522903144e+02
1.861063409634662325e+00,7.214091820891645135e+00,-4.566880206501051642e-01,7.786049743093212405e-02,-9.356428503935646868e-04,9.969638245755280126e-01,4.365804083812404315e+02
1.780202426498501245e+00,6.917845671724005108e+00,-5.374640831195079960e-01,6.812881786166025133e-02,-8.262629177513438044e-04,9.976761906883231390e-01,4.383617294101905486e+02
1.733322060290651168e+00,6.605386009162969252e+00,-6.151330900438951588e-01,5.838879475405824721e-02,-7.167834422438521327e-04,9.982936616390316598e-01,4.401430504391406657e+02
1.721812863354966971e+00,6.282979581928988644e+00,-6.835942813299517029e-01,4.864320939807206812e-02,-6.072356843851877588e-04,9.988160338341985911e-01,4.419243714680907829e+02
1.747193296748106084e+00,5.956873088305061792e+00,-7.367242583114189669e-01,3.889484785128766858e-02,-4.976509632171097859e-04,9.992431851927457975e-01,4.437056924970409000e+02
1.811112092512361382e+00,5.633298678574283791e+00,-7.683619286042786545e-01,2.914649695832535400e-02,-3.880606115593214348e-04,9.995750752815018014e-01,4.454870135259910171e+02
1.915350894503117019e+00,5.318479425643315217e+00,-7.722933582879043524e-01,1.940094037214998290e-02,-2.784959312695608927e-04,9.998117452564220242e-01,4.472683345549411342e+02
2.061827181880418358e+00,5.018634767534614127e+00,-7.422364941698292862e-01,9.660954590531978595e-03,-1.689881486623563396e-04,9.999533176100798837e-01,4.490496555838912514e+02
2.252597479888018395e+00,4.739985925371072994e+00,-6.718257185746924209e-01,-7.069497921097834560e-05,-5.956837023416438096e-05,9.999999957269145590e-01,4.508309766128413685e+02
2.486144029533544408e+00,4.487174326249073530e+00,-5.572734850152989416e-01,9.726832630145992864e-02,0.000000000000000000e+00,9.952581939871244510e-01,4.526122976417914856e+02
2.493342728508753048e+00,4.480387450857839404e+00,-5.533873693040854969e-01,-5.853361346762493422e-01,2.308247148017714546e-04,8.107906981226526977e-01,4.526628514157654877e+02
2.761314935980356822e+00,4.255101330644367685e+00,-3.963799122169972544e-01,-5.905351476598372784e-01,6.526621489504612003e-03,8.069855281170207340e-01,4.544441724447156048e+02
3.052977385299033397e+00,4.057883784049419518e+00,-2.016287442404722241e-01,-5.956883235774096397e-01,1.282444559552250139e-02,8.031132888632230848e-01,4.562254934736657219e+02
3.358423055942816760e+00,3.889524054637099937e+00,2.616641268513416815e-02,-6.007943609508683558e-01,1.912276307340652834e-02,7.991748593280922908e-01,4.580068145026158390e+02
3.667777259940084189e+00,3.750908131601784490e+00,2.823870794000962192e-01,-6.058519918176813457e-01,2.542003848098143073e-02,7.951711675194049755e-01,4.597881355315659562e+02
3.968573138044583892e+00,3.643039353214521547e+00,5.641314095091264358e-01,-6.108599833037079430e-01,3.171473676377761092e-02,7.911031893945302818e-01,4.615694565605160733e+02
4.214343000427412278e+00,3.572880764278214993e+00,8.325763927515447138e-01,-6.158171391254095850e-01,3.800532512543557118e-02,7.869719476712659922e-01,4.631386834935628372e+02
4.452373561363295984e+00,3.522709406089152395e+00,1.162276992052157620e+00,-6.207223010171788458e-01,4.429027489276759350e-02,7.827785105442419678e-01,4.649200045225129543e+02
4.625820743073493446e+00,3.507110335025372283e+00,1.511022781675092075e+00,-6.518588256269514103e-01,4.269502997156394974e-02,7.571375078993108909e-01,4.667013255514630714e+02
4.727044547240013550e+00,3.527721286094557929e+00,1.857634101254702186e+00,-6.829347721186938003e-01,4.097251437776118499e-02,7.293293838155378017e-01,4.684826465804131885e+02
4.765624716448883191e+00,3.563462309951146878e+00,2.100813302800871529e+00,-7.137242831365359086e-01,3.912213832825622156e-02,6.993333296460727544e-01,4.697758791728393248e+02
4.786018089039768775e+00,3.641993346540172816e+00,2.418200332691165855e+00,-7.439835254071814896e-01,3.714548866873412791e-02,6.671646922569139937e-01,4.715572002017894420e+02
4.773707906637220333e+00,3.759589615901567594e+00,2.706148251583882391e+00,-7.734565931597131572e-01,3.504658653359550569e-02,6.328796372692939709e-01,4.733385212307395591e+02
4.741181629134270992e+00,3.917727952314720596e+00,2.956312738393675588e+00,-8.018829738491299874e-01,3.283205584424558898e-02,5.965783706772445072e-01,4.751198422596896762e+02
4.700910822222003738e+00,4.118137441339435156e+00,3.160215393076799550e+00,-8.290062461627298873e-01,3.051117330126583774e-02,5.584064040884195723e-01,4.769011632886397933e+02
4.661655481686214131e+00,4.360713842065285561e+00,3.314279011072006842e+00,-8.545834836849647287e-01,2.809577794361144479e-02,5.185534655892417577e-01,4.786824843175899105e+02
4.624735059903349210e+00,4.641761513033622499e+00,3.424833724342061014e+00,-8.783946799543008721e-01,2.560003039681710280e-02,4.772498556015115079e-01,4.804638053465400276e+02
4.609186340954954275e+00,4.771272730846389365e+00,3.462915236536452390e+00,-9.002514285134018968e-01,2.304002731531381437e-02,4.347603047667634724e-01,4.812279632169710339e+02
4.571812843754235800e+00,5.090121829595710246e+00,3.537867912447517416e+00,-9.200041112460412007e-01,2.043329293913671157e-02,3.913756709736121442e-01,4.830092842459211511e+02
4.530723906343970597e+00,5.434208502587999590e+00,3.596444711391533211e+00,-9.375469768831328210e-01,1.779818426639375242e-02,3.474030667310207265e-01,4.847906052748712682e+02
4.483327572271798900e+00,5.798190356715859473e+00,3.649755966205769475e+00,-9.528207125464749350e-01,1.515325635610645025e-02,3.031551889119400434e-01,4.865719263038213853e+02
4.426963017612618678e+00,6.176763175837113096e+00,3.708899063661485140e+00,-9.658123871434315388e-01,1.251663785218780009e-02,2.589396968739701155e-01,4.883532473327715024e+02
4.358896470283407432e+00,6.564655986092466478e+00,3.784985728778857084e+00,-9.765529271865949212e-01,9.905463459926808212e-03,2.150494412848754922e-01,4.901345683617216196e+02
4.276312712803218119e+00,6.955708590866566787e+00,3.883927793059011702e+00,-9.851125250915936382e-01,7.335400778638321954e-03,1.717541987931622549e-01,4.919158893906717367e+02
4.176293002420820244e+00,7.341948300697587193e+00,4.001210178125816697e+00,-9.915945419215361767e-01,4.820295692819159296e-03,1.292943509239777300e-01,4.936972104196218538e+02
4.055794534670623896e+00,7.714500174795298371e+00,4.127121346173434624e+00,-9.961285353800872766e-01,2.371946046696585611e-03,8.787670267752359377e-02,4.954785314485719709e+02
3.985289574161438697e+00,7.902925753474566939e+00,4.193723147379055050e+00,-9.988630243651323015e-01,0.000000000000000000e+00,4.767240875119570925e-02,4.964105960542509024e+02
3.833859035681114857e+00,8.243770773045611122e+00,4.314967977692613310e+00,-9.969528364621454974e-01,-2.659180160399706588e-02,7.333428909818544283e-02,4.981919170832010195e+02
3.653768415423220617e+00,8.548437935709829461e+00,4.420302501710844822e+00,-9.929040710730411279e-01,-5.816763775064853065e-02,1.037209311811773671e-01,4.999732381121511366e+02
3.441496986870295149e+00,8.808046940747864539e+00,4.499985809885025390e+00,-9.854797015391930648e-01,-9.602628420150491340e-02,1.400311058182244217e-01,5.017545591411012538e+02
3.193372649704398825e+00,9.013695925970969469e+00,4.544213925865272508e+00,-9.726878404310916881e-01,-1.418107437427959805e-01,1.837609263053875397e-01,5.035358801700513709e+02
2.908654701649846963e+00,9.159032575909135332e+00,4.544122356700209586e+00,-9.513074492618511790e-01,-1.974925838662482669e-01,2.366660438185912152e-01,5.053172011990014880e+02
2.595206394216665213e+00,9.246601436849074318e+00,4.494109485938166948e+00,-9.161878547931285866e-01,-2.651383680714240465e-01,3.005020141463071170e-01,5.070985222279516051e+02
2.269077257294054295e+00,9.289004376658093420e+00,4.392114679918926790e+00,-8.594490170918743788e-01,-3.461240856198896099e-01,3.762253372297065246e-01,5.088798432569017223e+02
1.948993838814795820e+00,9.302483481474121518e+00,4.237268033879662887e+00,-7.703518197304642934e-01,-4.392636375560529105e-01,4.621747835602746934e-01,5.106611642858518394e+02
1.691714041470377738e+00,9.303278595523510219e+00,4.064361793532559552e+00,-6.379897358059722912e-01,-5.377179207479308998e-01,5.512064356597695669e-01,5.121883603020615965e+02
1.426776337630601521e+00,9.302734296791859592e+00,3.818442237304915832e+00,-4.593864819510985464e-01,-6.270030468409857338e-01,6.291512055561155892e-01,5.139696813310116568e+02
1.212043753197189933e+00,9.303894071835301816e+00,3.530929945935887382e+00,-2.492409574570814135e-01,-6.897033463963619937e-01,6.798442756216581673e-01,5.157510023599617170e+02
1.056435646959181573e+00,9.307538945264157704e+00,3.214876658115343844e+00,-3.725361392124316301e-02,-7.169572131412521587e-01,6.961210546841233304e-01,5.175323233889117773e+02
9.689789395296507513e-01,9.314391448459467426e+00,2.883263940872269337e+00,1.497920967130472458e-01,-7.138033906756674485e-01,6.841396401482883194e-01,5.193136444178618376e+02
9.588226391905058099e-01,9.325115578708331299e+00,2.549035106382943727e+00,3.006159399668240639e-01,-6.922481488301354124e-01,6.560659700663595828e-01,5.210949654468118979e+02
9.778996145047464950e-01,9.331415759633795659e+00,2.392047444734507256e+00,4.167635710108793523e-01,-6.628458981439541153e-01,6.220477804734894089e-01,5.219396890266228866e+02
1.061465009655952141e+00,9.347505146298706435e+00,2.068299543634973148e+00,5.049023792496719620e-01,-6.319762478574176834e-01,5.879452436852263819e-01,5.237210100555729468e+02
1.203285661729716960e+00,9.368231916138702431e+00,1.757468870433650743e+00,5.720080135067723281e-01,-6.026956422796976298e-01,5.563854736251649946e-01,5.255023310845230071e+02
1.386837381302842509e+00,9.392558806830447082e+00,1.463529776711365082e+00,6.237224829689715921e-01,-5.761576884604526771e-01,5.282164161278298797e-01,5.272836521134730674e+02
1.600761632855993044e+00,9.417086242067250978e+00,1.195125577013818052e+00,6.642040210762606423e-01,-5.525925436009750946e-01,5.034625101660803459e-01,5.290649731424231277e+02
1.836265000012030191e+00,9.437250077730546138e+00,9.632760830580455735e-01,6.964171128513871878e-01,-5.318360185643695726e-01,4.818232604237135952e-01,5.308462941713731880e+02
2.084540680495290843e+00,9.448541569228853021e+00,7.790909808542332282e-01,7.224610153023316439e-01,-5.135847716528860740e-01,4.629047026058139558e-01,5.326276152003232482e+02
2.165240910563639432e+00,9.450104200478765648e+00,7.297799222024012877e-01,6.812786273933006953e-01,-5.362495080152096527e-01,4.982929831038619417e-01,5.331967334958975471e+02
2.416268538804789312e+00,9.445677935634842370e+00,6.127777035965199515e-01,6.258882045302597286e-01,-5.622235453209265543e-01,5.405262625596056747e-01,5.349780545248476074e+02
2.453144344015000478e+00,9.443725908893716436e+00,6.006389556481330771e-01,5.495753713953229758e-01,-5.910547290657441888e-01,5.904415452902281869e-01,5.352416246184733382e+02
2.695676599427764497e+00,9.414732356448698880e+00,5.563211214039257557e-01,4.424730406794813997e-01,-6.205294116231030443e-01,6.474263337110560679e-01,5.370229456474233984e+02
2.923039323604344375e+00,9.354370254526553907e+00,5.853490371865534003e-01,2.919041148164167598e-01,-6.444647967073386940e-01,7.067227982442711998e-01,5.388042666763734587e+02
3.133524323947095791e+00,9.270693644768686070e+00,6.866874098426731798e-01,8.774588579498944496e-02,-6.498750728321517345e-01,7.549589718901670299e-01,5.405855877053235190e+02
3.327081199637014208e+00,9.178183815801899570e+00,8.554560247257161354e-01,-1.622838180789525631e-01,-6.185037520792215915e-01,7.688413822458063374e-01,5.423669087342735793e+02
3.502486313739087365e+00,9.086636104671837799e+00,1.079511311585747091e+00,-4.185165441276920695e-01,-5.411907808137614850e-01,7.293534404207638877e-01,5.441482297632236396e+02
3.657936901214572156e+00,9.003517221141757787e+00,1.343131058654810195e+00,-6.301986073250432918e-01,-4.332500438294240586e-01,6.443167814416896899e-01,5.459295507921736998e+02
3.791678492847663229e+00,8.936314584337027966e+00,1.630690328276385825e+00,-7.760471823856890383e-01,-3.222323936877589112e-01,5.421411764194733474e-01,5.477108718211237601e+02
3.902002233371664186e+00,8.892543648699074765e+00,1.926623041076928722e+00,-8.662566935925298806e-01,-2.256470552672162067e-01,4.457384291884329275e-01,5.494921928500738204e+02
3.943253160979828031e+00,8.880851856827586488e+00,2.053769587732640733e+00,-9.195917618792548431e-01,-1.477636800168536102e-01,3.640286889129549786e-01,5.502593973894239525e+02
4.023261096026192973e+00,8.875723741189117888e+00,2.337052231626088883e+00,-9.507810794725656267e-01,-8.649592880852549626e-02,2.975462875193259915e-01,5.520407184183740128e+02
4.076876642743303414e+00,8.910104961091816378e+00,2.593977610857245875e+00,-9.690273337816193155e-01,-3.830353577740088639e-02,2.439648858566237921e-01,5.538220394473240731e+02
4.089584376435313473e+00,8.928536084443596366e+00,2.671497196542034214e+00,-9.796754793915599668e-01,0.000000000000000000e+00,2.005890203349053880e-01,5.543981191440884686e+02
4.116253734788113405e+00,9.007024695463478281e+00,2.892177368438552332e+00,-9.858497415272265973e-01,-7.066531133532744785e-05,1.676313876847480289e-01,5.561794401730385289e+02
4.121543263100157617e+00,9.123515228403658028e+00,3.077014474645817010e+00,-9.909360845652198657e-01,-1.415719732875806878e-04,1.343341217410077282e-01,5.579607612019885892e+02
4.107216586591786012e+00,9.273594998899376662e+00,3.227597254542128535e+00,-9.949058718603275286e-01,-2.124790485771222337e-04,1.008080403067906222e-01,5.597420822309386494e+02
4.073360614409110347e+00,9.447250183258649514e+00,3.354116232469245062e+00,-9.977417028934894017e-01,-2.831439487944848962e-04,6.716706139696906885e-02,5.615234032598887097e+02
4.019117067045898217e+00,9.631679972522404043e+00,3.471045770625651450e+00,-9.994377738707573844e-01,-3.533265621966183586e-04,3.352627806072685374e-02,5.633047242888387700e+02
3.943453424217594261e+00,9.814100988698601924e+00,3.592836654316497569e+00,-9.999999106229038315e-01,-4.227933115178471378e-04,-0.000000000000000000e+00,5.650860453177888303e+02
3.847186076594450110e+00,9.983732659020795097e+00,3.729929228172176536e+00,-9.820549186436209332e-01,-6.435585512311576585e-03,-1.884853310127469206e-01,5.668673663467388906e+02
3.759555528191625307e+00,1.010652093034681620e+01,3.850837232412923861e+00,-9.180748497513135931e-01,-1.304287423299319883e-02,-3.961924452659909002e-01,5.682857241717806573e+02
3.641722469453574362e+00,1.024092387210923150e+01,4.016017232640074930e+00,-8.040196746079192325e-01,-1.932201166114331028e-02,-5.942886695106531780e-01,5.700670452007307176e+02
3.519951117895227188e+00,1.034690517887930206e+01,4.196114636391115482e+00,-6.564899899452216747e-01,-2.435907667523061482e-02,-7.539413296041364010e-01,5.718483662296807779e+02
3.400779084760311655e+00,1.041947108908613195e+01,4.389645951954753045e+00,-5.024574301261119924e-01,-2.781425176103374808e-02,-8.641544412372345052e-01,5.736296872586308382e+02
3.290693269928438802e+00,1.045354942468418180e+01,4.595160716502242337e+00,-0.000000000000000000e+00,-4.806577624515451230e-02,-9.988441726084960059e-01,5.754110082875808985e+02
3.194159101127674649e+00,1.044592995978102046e+01,4.810514318390226585e+00,-0.000000000000000000e+00,-7.928181305841998719e-03,-9.999685714767146960e-01,5.771923293165309587e+02
3.111674795411695449e+00,1.039722452156894938e+01,5.032139112812346049e+00,0.000000000000000000e+00,-7.267516988378319200e-03,-9.999735912497007551e-01,5.789736503454810190e+02
3.071816510982984916e+00,1.035732666560840620e+01,5.152585654611355537e+00,0.000000000000000000e+00,-6.606846612879389152e-03,-9.999781745507417829e-01,5.799323216542866248e+02
3.005150959519030884e+00,1.025970615693116272e+01,5.375214891424679564e+00,0.000000000000000000e+00,-5.946171044454059453e-03,-9.999823213686880319e-01,5.817136426832366851e+02
2.949023810449667771e+00,1.012737159549053345e+01,5.593130576803997833e+00,0.000000000000000000e+00,-5.285491148240648723e-03,-9.999860316941041605e-01,5.834949637121867454e+02
2.902103381615136701e+00,9.962777164319334133e+00,5.802047752418593163e+00,0.000000000000000000e+00,-4.624807789401281198e-03,-9.999893055192695668e-01,5.852762847411368057e+02
2.863100190170492443e+00,9.768353014017696623e+00,5.997659335868723574e+00,0.000000000000000000e+00,-3.964121833116230655e-03,-9.999921428381786104e-01,5.870576057700868660e+02
2.830764536913874085e+00,9.546507465935123449e+00,6.175625531180052974e+00,0.000000000000000000e+00,-3.303434144578241364e-03,-9.999945436465402793e-01,5.888389267990369262e+02
2.803884181394761477e+00,9.299629209136876185e+00,6.331563158867764329e+00,0.000000000000000000e+00,-2.642745588986872892e-03,-9.999965079417786340e-01,5.906202478279869865e+02
2.781282103838476072e+00,9.030089492795678296e+00,6.461034879337301362e+00,0.000000000000000000e+00,-1.982057031542832758e-03,-9.999980357230326966e-01,5.924015688569370468e+02
2.761814350087146153e+00,8.740244315672230258e+00,6.559538283126491010e+00,0.000000000000000000e+00,-1.321369337442309961e-03,-9.999991269911560066e-01,5.941828898858871071e+02
2.744394794097859691e+00,8.432478233677182189e+00,6.624777106522295789e+00,0.000000000000000000e+00,-6.606833718713128398e-04,-9.999997817487171758e-01,5.959642109148371674e+02
2.728020627816354349e+00,8.109247965304009043e+00,6.658937871268785003e+00,-0.000000000000000000e+00,-0.000000000000000000e+00,-1.000000000000000000e+00,5.977455319437872276e+02
2.717487921424027952e+00,7.892713412298110853e+00,6.668094907770855784e+00,0.000000000000000000e+00,1.554442069556236442e-02,-9.998791781936652301e-01,5.989039727904209940e+02
2.701477623757296165e+00,7.551767448510765313e+00,6.664298460808372404e+00,0.000000000000000000e+00,3.116267313496304259e-02,-9.995143259619061471e-01,6.006852938193710543e+02
2.686244275334840115e+00,7.201040706265526836e+00,6.636981489911733867e+00,0.000000000000000000e+00,4.684377140049714172e-02,-9.989022279887946887e-01,6.024666148483211146e+02
2.672218071550067187e+00,6.842405383004524388e+00,6.587991523969837893e+00,0.000000000000000000e+00,6.257643855244032771e-02,-9.980401742104836327e-01,6.042479358772711748e+02
2.659851680898029258e+00,6.477722597350739520e+00,6.519122805983484703e+00,0.000000000000000000e+00,7.834914398268748303e-02,-9.969259810222521612e-01,6.060292569062212351e+02
2.649620894220376943e+00,6.108844134682898108e+00,6.432120704431493863e+00,0.000000000000000000e+00,9.415014312549188635e-02,-9.955580096355256536e-01,6.078105779351712954e+02
2.642025331718901970e+00,5.737614178584001579e+00,6.328686004475847504e+00,0.000000000000000000e+00,1.099675192292513259e-01,-9.939351813446207773e-01,6.095918989641213557e+02
2.637589208778905014e+00,5.365871029535620451e+00,6.210479089556845800e+00,0.000000000000000000e+00,1.257892268602873176e-01,-9.920569894950044265e-01,6.113732199930714160e+02
2.636862161757267398e+00,4.995448812209616563e+00,6.079124023655954723e+00,0.000000000000000000e+00,1.416031367809327812e-01,-9.899235079811977700e-01,6.131545410220214762e+02
2.640420135005340452e+00,4.628179172689633525e+00,5.936212544262995827e+00,0.000000000000000000e+00,1.573970818206919253e-01,-9.875353961425030747e-01,6.149358620509715365e+02
2.648866330513989453e+00,4.265892966935359354e+00,5.783307975865124462e+00,0.000000000000000000e+00,1.731589033413688805e-01,-9.848938999677144812e-01,6.167171830799215968e+02
2.662832221687567280e+00,3.910421941783773114e+00,5.621949073579329159e+00,0.000000000000000000e+00,1.888764978853498810e-01,-9.820008495650934810e-01,6.184985041088716571e+02
2.682978632875263614e+00,3.563600409763362009e+00,5.453653806378087943e+00,0.000000000000000000e+00,2.045378635909959886e-01,-9.788586529002188952e-01,6.202798251378217174e+02
2.709996886412557870e+00,3.227266918979389665e+00,5.279923089209782816e+00,0.000000000000000000e+00,2.201311459605256593e-01,-9.754702858509355368e-01,6.220611461667717776e+02
2.744610019052489136e+00,2.903265919310928478e+00,5.102244473189994522e+00,0.000000000000000000e+00,2.356446825738431061e-01,-9.718392786745515544e-01,6.238424671957218379e+02
2.787574069796438625e+00,2.593449426143527692e+00,4.922095802936328646e+00,0.000000000000000000e+00,2.510670463563261512e-01,-9.679696990267362411e-01,6.256237882246718982e+02
