4.531121019849221554e+00,6.307573590962415544e+00,3.963636531640736038e+00,-9.847292398874657460e-01,0.000000000000000000e+00,-1.740928605964462139e-01,1.209896295423715600e+02
4.577261240226459194e+00,6.025382985578926487e+00,4.127618559612320048e+00,-9.656010912074178831e-01,0.000000000000000000e+00,-2.600279459193647336e-01,1.225481467085072751e+02
4.620884535387587810e+00,5.739337739017087436e+00,4.282631923675729091e+00,-9.364404072876681973e-01,0.000000000000000000e+00,-3.508266859845557972e-01,1.241066638746429902e+02
4.662435121082362244e+00,5.450619474577210966e+00,4.428195025153852882e+00,-8.959588622875380715e-01,0.000000000000000000e+00,-4.441370476423017188e-01,1.256651810407787053e+02
4.702357266367694244e+00,5.160396748748248719e+00,4.563784398169376644e+00,-8.436800719101670287e-01,0.000000000000000000e+00,-5.368462873687916970e-01,1.272236982069144204e+02
4.741097229928538326e+00,4.869829452591575958e+00,4.688832390550866869e+00,-7.802633581306306354e-01,0.000000000000000000e+00,-6.254511107662300562e-01,1.287822153730501498e+02
4.779105240765041174e+00,4.580073167291845770e+00,4.802724648982042766e+00,-7.075829712128226534e-01,0.000000000000000000e+00,-7.066302702613537212e-01,1.303407325391858649e+02
4.816837531964517360e+00,4.292283489978474975e+00,4.904797397253122249e+00,-6.284726807809553062e-01,0.000000000000000000e+00,-7.778316588517077967e-01,1.318992497053215800e+02
4.854758436647721886e+00,4.007620345749787205e+00,4.994334495556461917e+00,-5.462083355280026309e-01,0.000000000000000000e+00,-8.376493623227614371e-01,1.334577668714572951e+02
4.893342555589891951e+00,3.727252301717273397e+00,5.070564267798087776e+00,-4.639317483747372739e-01,0.000000000000000000e+00,-8.858709459339769721e-01,1.350162840375930102e+02
4.933077006471385140e+00,3.452360898829875513e+00,5.132656082868536807e+00,-3.842189500770550881e-01,0.000000000000000000e+00,-9.232420042446537467e-01,1.365748012037287253e+02
4.974463765212088440e+00,3.184145017236848840e+00,5.179716674727021797e+00,-3.088851899743952356e-01,0.000000000000000000e+00,-9.510993320439677934e-01,1.381333183698644405e+02
5.018022110390078616e+00,2.923825291002347893e+00,5.210786184996588410e+00,-2.389986770186721954e-01,0.000000000000000000e+00,-9.710198928875373170e-01,1.396918355360001556e+02
5.064291182342346431e+00,2.672648588094091782e+00,5.224833910538110082e+00,-1.750161402724606519e-01,0.000000000000000000e+00,-9.845655644212478741e-01,1.412503527021358707e+02
5.069364268227795733e+00,2.647538239521505687e+00,5.225037836426236204e+00,-1.169566219613512731e-01,0.000000000000000000e+00,-9.931370240703895069e-01,1.414094476104284581e+02
5.122792376521848823e+00,2.407497014363807697e+00,5.214346146630628454e+00,-6.456121475376223884e-02,0.000000000000000000e+00,-9.979137485522076023e-01,1.429679647765641732e+02
5.179137858797409066e+00,2.179244267280976644e+00,5.183613494137317090e+00,-1.741718878752641919e-02,0.000000000000000000e+00,-9.998483092623299262e-01,1.445264819426998884e+02
5.236033482694372410e+00,1.963689450418705462e+00,5.129800893060828315e+00,0.000000000000000000e+00,2.371239420780988857e-02,-9.997188216498343882e-01,1.460849991088356035e+02
5.280351754969259126e+00,1.797864809947980147e+00,5.064322043064167111e+00,1.848509128677165367e-02,2.353674589239889217e-02,-9.995520611718612392e-01,1.473603506057372670e+02
5.328245041895587342e+00,1.608744211739029373e+00,4.955539032362018759e+00,3.742277720728694190e-02,2.334838861139883898e-02,-9.990267206112881659e-01,1.489188677718729821e+02
5.352265439480783371e+00,1.497938434535361685e+00,4.867779652496730058e+00,5.680873411491854652e-02,2.314674404082244646e-02,-9.981167246212083732e-01,1.498999393346880424e+02
5.377346957238141378e+00,1.336347718578758004e+00,4.696213244565636380e+00,7.663635928214018733e-02,2.293124033532835740e-02,-9.967953785269383360e-01,1.514584565008237576e+02
5.385540393079976340e+00,1.193594218244023786e+00,4.491357835633143836e+00,9.689657486480666992e-02,2.270131775982435485e-02,-9.950355289895113087e-01,1.530169736669594727e+02
5.372750573162214494e+00,1.073417980647703329e+00,4.252721485027634252e+00,1.175776385214599012e-01,2.245643495270437107e-02,-9.928097539050128040e-01,1.545754908330951878e+02
5.336458039551548183e+00,9.779239131864017054e-01,3.982159114554867152e+00,1.386649655518781832e-01,2.219607579822516566e-02,-9.900905824961956370e-01,1.561340079992309029e+02
5.277538592500481407e+00,9.053976891765965762e-01,3.686439617911601019e+00,1.601409680020358384e-01,2.191975686394539644e-02,-9.868507458711254232e-01,1.576925251653666180e+02
5.198802796553696481e+00,8.515943212333499934e-01,3.374841698285698577e+00,1.819849166839339061e-01,2.162703533460011776e-02,-9.830634574849059781e-01,1.592510423315023331e+02
5.102741075093490508e+00,8.153315706416054409e-01,3.056123242681746177e+00,2.041728324348255907e-01,2.131751734676481588e-02,-9.787027219486573726e-01,1.608095594976380482e+02
4.990987329665711236e+00,8.022707001932152249e-01,2.737991771670454710e+00,2.266774131440300599e-01,2.099086659995071102e-02,-9.737436694991725705e-01,1.623680766637737634e+02
4.864935630191173921e+00,8.202560493169118727e-01,2.426259349204659799e+00,2.494680030586251263e-01,2.064681309044988713e-02,-9.681629121997752385e-01,1.639265938299094785e+02
4.726243052431986946e+00,8.724162334994514101e-01,2.123814969564232769e+00,2.725106105960456437e-01,2.028516178569690284e-02,-9.619389166282330539e-01,1.654851109960451936e+02
4.582381803991392388e+00,9.526322745309501183e-01,1.843104035783479810e+00,2.957679803028278598e-01,1.990580103079111346e-02,-9.550523864756889081e-01,1.669836163048539390e+02
4.423452713908568867e+00,1.062359068884010549e+00,1.562742166535252553e+00,3.191997236766251356e-01,1.950871045699947154e-02,-9.474866471993529382e-01,1.685421334709896541e+02
4.256775181562938215e+00,1.193659882963993057e+00,1.295128786729625725e+00,3.427625123016800890e-01,1.909396814651089652e-02,-9.392280237200445470e-01,1.701006506371253693e+02
4.083834063061477337e+00,1.341632219405042736e+00,1.041468205554922033e+00,3.664103351455913482e-01,1.866175680039428020e-02,-9.302662012196392105e-01,1.716591678032610844e+02
3.906046313333131348e+00,1.501426720890281175e+00,8.030265467549966285e-01,3.900948199614182044e-01,1.821236865938170163e-02,-9.205945584605002008e-01,1.732176849693967995e+02
3.724767797742245090e+00,1.668229309369021252e+00,5.811373578961911424e-01,4.137656165944863518e-01,1.774620894113635924e-02,-9.102104628009952680e-01,1.747762021355325146e+02
3.541299681753872886e+00,1.837243414062759594e+00,3.772075183377462393e-01,4.373708376946322529e-01,1.726379758388651292e-02,-8.991155162865770434e-01,1.763347193016682297e+02
3.356894428216397941e+00,2.003672223950124121e+00,1.927234720803644163e-01,4.608575499924663643e-01,1.676576912479366480e-02,-8.873157429013616149e-01,1.778932364678039448e+02
3.172761429520615906e+00,2.162700900321633757e+00,2.925781310820050468e-02,4.841723070406521168e-01,1.625287059140450435e-02,-8.748217082883068541e-01,1.794517536339396599e+02
2.990072299710176740e+00,2.309478684669705739e+00,-1.115237476016164991e-01,5.072617122854556904e-01,1.572595734433358469e-02,-8.616485649699835436e-01,1.810102708000753751e+02
2.809965849544937111e+00,2.439100836623968149e+00,-2.278550025377236998e-01,5.300729996556947654e-01,1.518598687638261606e-02,-8.478160182720094751e-01,1.825687879662110902e+02
2.633552765545276397e+00,2.546590335852875420e+00,-3.178614228884628634e-01,5.525546176581481728e-01,1.463401064431886847e-02,-8.333482106761371799e-01,1.841273051323468053e+02
2.461920012159946491e+00,2.626879280825824559e+00,-3.795518538844056544e-01,5.746568023478983989e-01,1.407116408066995915e-02,-8.182735250860211362e-01,1.856858222984825204e+02
2.296134974392566086e+00,2.674789916063526007e+00,-4.108096934561136226e-01,5.963321245611274968e-01,1.349865500006257324e-02,-8.026243103280644720e-01,1.872443394646182355e+02
2.143498286282974785e+00,2.684924677511960400e+00,-4.094877472413113173e-01,6.175359974762206772e-01,1.291775067384752160e-02,-7.864365349718802634e-01,1.887415010523323247e+02
1.992696517355293739e+00,2.654101771234937956e+00,-3.733309200473884926e-01,6.382271318803645066e-01,1.232976389445923637e-02,-7.697493780796909046e-01,1.903000182184680398e+02
1.851521151663875431e+00,2.580076141136293355e+00,-3.004464594555836809e-01,6.583679283921662906e-01,1.173603838435189131e-02,-7.526047676354757909e-01,1.918585353846037549e+02
1.787872103441590310e+00,2.526451203469684437e+00,-2.467305386830646319e-01,6.779247982161044073e-01,1.113793392162843246e-02,-7.350468790435148447e-01,1.926214642537092061e+02
1.670040818632221313e+00,2.383896664880282401e+00,-1.003761457968408710e-01,6.968684066422948797e-01,1.053681155496398111e-02,-7.171216071393222702e-01,1.941799814198449212e+02
1.639289324540350146e+00,2.334562698888283716e+00,-4.749846242101436744e-02,7.151738362984295660e-01,9.934019264621223033e-03,-6.988760255835343438e-01,1.946375177407342392e+02
1.548058539794569199e+00,2.146010443778492593e+00,1.644868438417524392e-01,7.328206699494564935e-01,9.330878395845999124e-03,-6.803578473150667660e-01,1.961960349068699543e+02
1.470071572467599230e+00,1.934848218122955821e+00,4.071894978864601944e-01,7.497929952738821013e-01,8.728671148196597701e-03,-6.616148989693376725e-01,1.977545520730056694e+02
1.405168332500618789e+00,1.712632505467257538e+00,6.753147377457359157e-01,7.660793363937407063e-01,8.128629352518826692e-03,-6.426946209012295297e-01,1.993130692391413845e+02
1.353341466017125017e+00,1.490878651018400225e+00,9.636804302058926686e-01,7.816725188979616323e-01,7.531924709788044049e-03,-6.236436027972082075e-01,2.008715864052770996e+02
1.314736161136759840e+00,1.281103277529798357e+00,1.267194112585585453e+00,7.965694766102030533e-01,6.939660606394859078e-03,-6.045071629382193779e-01,2.024301035714128147e+02
1.289650990707391420e+00,1.094866703829270094e+00,1.580830431775962497e+00,8.107710093819029407e-01,6.352865561915090921e-03,-5.853289771103106220e-01,2.039886207375485299e+02
1.278539796432803577e+00,9.438155190325172583e-01,1.899608880590561100e+00,8.242815017425522139e-01,5.772488310788990128e-03,-5.661507610731831841e-01,2.055471379036842450e+02
1.282014624853142992e+00,8.397254660098444345e-01,2.218571732787524731e+00,8.371086123440308890e-01,5.199394470853301205e-03,-5.470120084939519289e-01,2.071056550698199601e+02
1.300844651567836685e+00,7.931267365342323794e-01,2.532381867769830208e+00,8.492629438484186055e-01,4.634364710864978185e-03,-5.279497844204924517e-01,2.086641722359556752e+02
1.335929311082371562e+00,8.090906927518995984e-01,2.834775730842600705e+00,8.607577022981420800e-01,4.078094296891808870e-03,-5.089985727694417150e-01,2.102226894020913903e+02
1.388244272910827970e+00,8.858324118812976877e-01,3.118772611652724347e+00,8.716083541502894771e-01,3.531193873963071796e-03,-4.901901749782915374e-01,2.117812065682271054e+02
1.458810982862324135e+00,1.018955583919040730e+00,3.377167112758757028e+00,8.818322881311339012e-01,2.994191324379450597e-03,-4.715536559371814596e-01,2.133397237343628206e+02
1.547809066135570566e+00,1.204107046099768930e+00,3.603231289578065599e+00,8.914484879457249544e-01,2.467534536867885177e-03,-4.531153325728343173e-01,2.148982409004985357e+02
1.553034262495369022e+00,1.214601606694549973e+00,3.613511732196216464e+00,9.004772207259094108e-01,1.951594920336736146e-03,-4.348987999880072342e-01,2.149759798213519275e+02
1.672248819992618207e+00,1.447824798487652886e+00,3.796909702243187912e+00,9.089397449726737133e-01,1.446671501173039118e-03,-4.169249898369951080e-01,2.165344969874876426e+02
1.805842275155472576e+00,1.721933582857605893e+00,3.940097476846655233e+00,9.168580406876768452e-01,9.529954526005170613e-04,-3.992122556059891636e-01,2.180930141536233577e+02
1.951664596491881731e+00,2.028176705370335231e+00,4.046536249462080015e+00,9.242545634248378050e-01,4.707349173825971299e-04,-3.817764796278053652e-01,2.196515313197590729e+02
2.082486478252043582e+00,2.304823834390269610e+00,4.108760410428399013e+00,9.311520231452796725e-01,0.000000000000000000e+00,-3.646311969544738796e-01,2.209584782459774601e+02
2.246435395967414816e+00,2.652180897108545210e+00,4.154360199683147847e+00,5.114732827119711223e-01,-2.753387165561670957e-01,-8.139924276288095228e-01,2.225169954121131752e+02
2.416014557941009944e+00,3.012345850758761934e+00,4.174840784529601834e+00,-1.403464077947989275e-01,-4.257102307760083360e-01,-8.939092153187222500e-01,2.240755125782488903e+02
2.448489478435107003e+00,3.081138031450020076e+00,4.175096415823965401e+00,-8.014909193837201073e-02,-1.256554923245961075e-01,-9.888310372910621426e-01,2.243682588660335000e+02
2.623485887516647352e+00,3.451861144499181133e+00,4.158548070852203793e+00,-1.172313510397501000e-02,1.872998695120954571e-01,-9.822328272787903547e-01,2.259267760321692151e+02
2.799599393801191827e+00,3.828746562791118802e+00,4.121865219433900052e+00,-9.901404437116999302e-02,8.637241883485029248e-02,-9.913304314313574617e-01,2.274852931983049302e+02
2.974896470366005907e+00,4.209372214341460250e+00,4.066918048099687155e+00,-1.845337107867846826e-01,-1.610013431129671962e-02,-9.826943040734578139e-01,2.290438103644406453e+02
3.147333732155302766e+00,4.591353115507687654e+00,3.995163883651768000e+00,-2.030932831583568410e-01,-1.638062018430028882e-02,-9.790223662503002577e-01,2.306023275305763605e+02
3.314662237617099549e+00,4.972343242591838575e+00,3.907321705441915594e+00,-2.232656546167394451e-01,-1.668004104230657800e-02,-9.746149104643258010e-01,2.321608446967120756e+02
3.474504209918022557e+00,5.350018189636253751e+00,3.803707274646972891e+00,-2.452403784148315669e-01,-1.699967876277475379e-02,-9.693132454046590185e-01,2.337193618628477907e+02
3.624429002522225662e+00,5.722057200503549268e+00,3.684566477202195767e+00,-2.692304941817928454e-01,-1.734072102468630153e-02,-9.629196437901615946e-01,2.352778790289835058e+02
3.761942021717812779e+00,6.086134806079428472e+00,3.550076413137874365e+00,-2.954736410640616540e-01,-1.770414378244134987e-02,-9.551868355087798079e-01,2.368363961951192209e+02
3.884473290667176837e+00,6.439912519240841959e+00,3.400346181203120377e+00,-3.242317415863895658e-01,-1.809053172787239080e-02,-9.458046893569832525e-01,2.383949133612549360e+02
3.989365603292604145e+00,6.781030558835924538e+00,3.235417362271246322e+00,-3.557880831983870062e-01,-1.849980886446885367e-02,-9.343835384498144769e-01,2.399534305273906512e+02
4.073862214399935233e+00,7.107099574367903294e+00,3.055264203712134474e+00,-3.904399393723579359e-01,-1.893084101685479220e-02,-9.204337439497227713e-01,2.415119476935263663e+02
4.135593797211917000e+00,7.415654791482631403e+00,2.859895420334526150e+00,-4.284838801287881860e-01,-1.938086046165050230e-02,-9.033415448862873731e-01,2.430704648596620814e+02
4.173867863875525330e+00,7.704046384075794229e+00,2.649508829341117533e+00,-4.701895830318270630e-01,-1.984465307727702882e-02,-8.823423064506197289e-01,2.446289820257977965e+02
4.180474167358314119e+00,7.819262694527609803e+00,2.554024783885324723e+00,-5.157563708031424055e-01,-2.031344861543207120e-02,-8.564944423528501050e-01,2.452918924200756692e+02
4.175847394354748054e+00,8.018503878410360386e+00,2.366443474237305722e+00,-5.652453448340875042e-01,-2.077348232968254105e-02,-8.246612411016368549e-01,2.465212418096662645e+02
4.150755759922404309e+00,8.245982688837614205e+00,2.116585261147719166e+00,-6.184801294558797125e-01,-2.120428326212278961e-02,-7.855142951210868363e-01,2.480797589758019797e+02
4.109040546158548857e+00,8.445523612956845838e+00,1.857765001179536579e+00,-6.749135505576289162e-01,-2.157693883069881219e-02,-7.375812734772969614e-01,2.496382761419376948e+02
4.053300943706148907e+00,8.615462791938432119e+00,1.593632489931851248e+00,-7.334703674003774099e-01,-2.185293292245482633e-02,-6.793700534084806675e-01,2.511967933080734099e+02
3.986058293328821112e+00,8.754007495401669559e+00,1.327813988301532078e+00,-7.924019111609207355e-01,-2.198463403231010541e-02,-6.096030569600071614e-01,2.527553104742091250e+02
3.909766507926791146e+00,8.859229846038822132e+00,1.063928287778989734e+00,-8.492257103611265956e-01,-2.191889766157105110e-02,-5.275748807391623663e-01,2.543138276403448401e+02
3.826822134448117030e+00,8.929059965679339683e+00,8.056027426528507007e-01,-9.008531470178290368e-01,-2.160498999929018338e-02,-4.335860144368175462e-01,2.558723448064805552e+02
3.739574096774261669e+00,8.961278519217350080e+00,5.564893401499271253e-01,-9.439881747360694408e-01,-2.100643879864570046e-02,-3.293099687034435341e-01,2.574308619726162988e+02
3.649284341384082531e+00,8.954200274176409735e+00,3.205781204096377901e-01,-9.757686074397433629e-01,-2.011349609167343427e-02,-2.178785717092767971e-01,2.589893791387520423e+02
3.555090950315827669e+00,8.907369005305275422e+00,1.025120941216999398e-01,-9.944466637274004261e-01,-1.895047439784061996e-02,-1.035215558303645006e-01,2.605478963048877858e+02
3.547383045431105053e+00,8.902139642991116375e+00,8.658881923916968149e-02,-9.998033440796856297e-01,-1.757319898276425360e-02,9.189986103898590067e-03,2.606689105423465094e+02
3.442837780169549333e+00,8.815181325865458106e+00,-1.028676722259913440e-01,-9.930955117903246254e-01,-1.605682774941334309e-02,1.162044867659540043e-01,2.622274277084822529e+02
3.333613890963231796e+00,8.692071663064369957e+00,-2.664087280539578773e-01,-9.765934706920280650e-01,-1.447962750154296874e-02,2.146055297263228245e-01,2.637859448746179964e+02
3.220997593593570407e+00,8.536149641099484597e+00,-4.052734267001211754e-01,-9.529643234947930974e-01,-1.290950696786946107e-02,3.028074351398226116e-01,2.653444620407537400e+02
3.106293873255947080e+00,8.350626700709254280e+00,-5.225642499973609523e-01,-9.247548641838877481e-01,-1.139698978423428488e-02,3.803926258382217540e-01,2.669029792068894835e+02
2.990823649150961661e+00,8.138593791424916901e+00,-6.212881018220263174e-01,-8.940914177737943058e-01,-9.974319605332276212e-03,4.477734355806038957e-01,2.684614963730252271e+02
2.875928867178930481e+00,7.903032907783437366e+00,-7.043696294681925929e-01,-8.625822290287542549e-01,-8.658294943797512772e-03,5.058427938524497902e-01,2.700200135391609706e+02
2.782987494839952447e+00,7.693634290651852226e+00,-7.616506336392505627e-01,-8.313492467155569887e-01,-7.454408809451145042e-03,5.557003345102264902e-01,2.712972305219822147e+02
2.670776516840456694e+00,7.421001501103670073e+00,-8.198671219213794492e-01,-8.011175982757469116e-01,-6.360772907470110121e-03,5.984731692406256576e-01,2.728557476881179582e+02
2.558759020210107149e+00,7.133512650203468475e+00,-8.674826018269308214e-01,-7.723159007630576722e-01,-5.371198083394985133e-03,6.352159472649405725e-01,2.744142648542537017e+02
2.445973843426115124e+00,6.834194046032727954e+00,-9.056534177444428568e-01,-7.451646218476041250e-01,-4.477349949256608473e-03,6.668655334354512965e-01,2.759727820203894453e+02
2.331480613462329377e+00,6.526033753327403986e+00,-9.354940717071723588e-01,-7.197452318942453298e-01,-3.670134872754924130e-03,6.942285871926586749e-01,2.775312991865251888e+02
2.214355198389186707e+00,6.211992741338825397e+00,-9.580821609315991472e-01,-6.960506364954569536e-01,-2.940525702563173693e-03,7.179866744883652840e-01,2.790898163526609324e+02
2.093685323552123112e+00,5.895015959449345644e+00,-9.744631518576966078e-01,-6.740202645276637261e-01,-2.280012020792637675e-03,7.387093369866412074e-01,2.806483335187966759e+02
1.968566330938895881e+00,5.578043381294564007e+00,-9.856550118406584016e-01,-6.535636422865248596e-01,-1.680813500771776228e-03,7.568696983940808032e-01,2.822068506849324194e+02
1.838097062327488151e+00,5.264021058158987465e+00,-9.926527190140862489e-01,-6.345757709169163041e-01,-1.135951492280209496e-03,7.728598194882487782e-01,2.837653678510681630e+02
1.701962393000065354e+00,4.955674092881172221e+00,-9.952767450160144858e-01,-6.169468660010448691e-01,-6.392405156958231877e-04,7.870045463039282430e-01,2.853238850172039065e+02
1.611465359876667724e+00,4.762007566828150296e+00,-9.928194646324906003e-01,-6.005683133736172685e-01,-1.852380076561450093e-04,7.995734279342011641e-01,2.863253124215476078e+02
1.467171077808944846e+00,4.469367286368135517e+00,-9.795140549741606639e-01,-5.853361346762493422e-01,2.308247148017714546e-04,8.107906981226526977e-01,2.878838295876833513e+02
1.320571680006704218e+00,4.188335275605043151e+00,-9.532164549529559272e-01,-7.069497921097834560e-05,-5.956837023416438096e-05,9.999999957269145590e-01,2.894423467538190948e+02
1.173107269688750787e+00,3.921023611718031709e+00,-9.101318443691709392e-01,9.704995188563640685e-02,-1.869611885047947012e-04,9.952794943554849061e-01,2.910008639199548384e+02
1.026231238544154545e+00,3.669586407467294809e+00,-8.463910321446965757e-01,9.980896261906235800e-02,-1.922762650792442403e-04,9.950065999835098207e-01,2.925593810860905819e+02
8.814172591114309840e-01,3.436227824681503673e+00,-7.580333147905370383e-01,1.029005487829140753e-01,-1.982320292226393455e-04,9.946916294833478833e-01,2.941178982522263254e+02
7.401664347277423506e-01,3.223210229092936085e+00,-6.409889294537132187e-01,1.063885920256344292e-01,-2.049515452815817249e-04,9.943246077019652907e-01,2.956764154183620690e+02
6.038840774240389342e-01,3.032752018246965164e+00,-4.917881490666270450e-01,1.103544195833178754e-01,-2.125914855307360434e-04,9.938922762972299818e-01,2.972349325844978125e+02
4.737549298405405729e-01,2.866926408374210755e+00,-3.082730358007225169e-01,1.149031813624730863e-01,-2.213544152584931684e-04,9.933766707120746942e-01,2.987934497506335561e+02
3.508779908667323255e-01,2.727781221128450451e+00,-8.886075555209321797e-02,1.201732367879341373e-01,-2.315068759932642300e-04,9.927529096227708516e-01,3.003519669167692996e+02
2.364022105877360280e-01,2.617457373737342774e+00,1.681905597043311662e-01,1.263503442897154216e-01,-2.434067207393576478e-04,9.919856507283957292e-01,3.019104840829050431e+02
1.365221710960004275e-01,2.541680025173550739e+00,4.505985046358447210e-01,1.336897750237164562e-01,-2.575457147967110533e-04,9.910231973694221264e-01,3.033948249118660101e+02
4.250328924551113885e-02,2.495175424215234639e+00,7.885924823297659758e-01,1.425520158643384938e-01,-2.746183155366981347e-04,9.897872737905827334e-01,3.049533420780017536e+02
-3.934266895380038320e-02,2.484449062953217435e+00,1.170326018535563506e+00,1.534628491567081587e-01,-2.956374126128402864e-04,9.881543738339803040e-01,3.065118592441374972e+02
-1.053229135815684225e-01,2.510777824581762907e+00,1.593641782449227495e+00,1.672195440422013513e-01,-3.221388994834411515e-04,9.859196317737303206e-01,3.080703764102732407e+02
-1.357161140578175551e-01,2.551498803070487487e+00,1.904684478250913804e+00,1.850899885383591181e-01,-3.565652899884849247e-04,9.827215114181963029e-01,3.091368399319756008e+02
-1.556643649870742552e-01,2.642097114907175914e+00,2.377021883878331465e+00,2.092141328041458859e-01,-4.030390758684358841e-04,9.778697685246806603e-01,3.106953570981113444e+02
-1.482166552368587298e-01,2.763210991793518811e+00,2.853261079033436509e+00,2.434894373962367964e-01,-4.690684922503474737e-04,9.699034353229261107e-01,3.122538742642470879e+02
-1.054798938045889700e-01,2.908921598688913424e+00,3.318911829921295631e+00,2.957565784174045476e-01,-5.697581537617768185e-04,9.552631688170941660e-01,3.138123914303828315e+02
-2.412998204000569094e-02,3.072151430497836344e+00,3.759840678075793807e+00,3.839762807035062009e-01,-7.397083708250973538e-04,9.233426604942653881e-01,3.153709085965185750e+02
6.356856005601674645e-03,3.118942729953374737e+00,3.871234775874399237e+00,5.554800845381784313e-01,-1.070100652068145400e-03,8.315291519640503060e-01,3.157948950809523012e+02
1.400066725861586758e-01,3.298579862334515944e+00,4.247112615476596353e+00,8.966831943777390235e-01,-1.727408952563836558e-03,4.426694759963065717e-01,3.173534122470880448e+02
2.878385864226595814e-01,3.490313257071215425e+00,4.588756108326952798e+00,8.494893165934640500e-01,-1.636492642877299597e-03,-5.276032817234925787e-01,3.189119294132237883e+02
4.412603139187356582e-01,3.694955112993877577e+00,4.899750584783056695e+00,4.721580571607171817e-01,-9.095855259455042433e-04,-8.815134381916067685e-01,3.204704465793595318e+02
5.505750221877092621e-01,3.850604829738676127e+00,5.102977235363108655e+00,2.925533501486837218e-01,-5.635873174807045369e-04,-9.562490364366998952e-01,3.215880713125932857e+02
6.997860948897903777e-01,4.079351502365334170e+00,5.360377503905539243e+00,2.016522091260134208e-01,-3.884714618637201628e-04,-9.794571127132223332e-01,3.231465884787290292e+02
8.457774161565365656e-01,4.319320833800458281e+00,5.592733637977123529e+00,1.482109598825905594e-01,-2.855199479309239972e-04,-9.889557269408172369e-01,3.247051056448647728e+02
9.884462452078088823e-01,4.569157523962317669e+00,5.801290349666199830e+00,1.133243206614583526e-01,-2.183128303075487829e-04,-9.935580258274435694e-01,3.262636228110005163e+02
1.127663908634018330e+00,4.827544278484031004e+00,5.987186913280745593e+00,8.884319364690473897e-02,-1.711513375540919119e-04,-9.960456102256753930e-01,3.278221399771362599e+02
1.263275501288018798e+00,5.093197014417834900e+00,6.151462212631824578e+00,7.074672958128175315e-02,-1.362895332594322940e-04,-9.974943015770647570e-01,3.293806571432720034e+02
1.395099429535343383e+00,5.364860193761794349e+00,6.295059343560807541e+00,5.683809186040414407e-02,-1.094953371959229386e-04,-9.983834029692397749e-01,3.309391743094077469e+02
1.522926795746206485e+00,5.641302268267176068e+00,6.418829792100620324e+00,4.582029051002434877e-02,-8.827017226638107143e-05,-9.989496950227040317e-01,3.324976914755434905e+02
1.646520622057662919e+00,5.921311219414657323e+00,6.523537206781538700e+00,3.687993771619354350e-02,-7.104709331054125912e-05,-9.993197011699310739e-01,3.340562086416792340e+02
1.765614910573177543e+00,6.203690177822045904e+00,6.609860781794220763e+00,2.948174683915293776e-02,-5.679490119418894732e-05,-9.995653172142635601e-01,3.356147258078149775e+02
1.879913536296421661e+00,6.487253106668219083e+00,6.678398265998013450e+00,2.325933603496907823e-02,-4.480778222388608734e-05,-9.997294640448860514e-01,3.371732429739507211e+02
1.989088968210982022e+00,6.770820533987714995e+00,6.729668611104992593e+00,1.795362200382142823e-02,-3.458662722219315320e-05,-9.998388201408811016e-01,3.387317601400864646e+02
2.092780813013568331e+00,7.053215318908048204e+00,6.764114270772143556e+00,1.337629322447914451e-02,-2.576866480041379982e-05,-9.999105330556072868e-01,3.402902773062222082e+02
2.190594175081277850e+00,7.333258437070999669e+00,6.782103160789414886e+00,9.387228669820597490e-03,-1.808395980395833644e-05,-9.999559388347423194e-01,3.418487944723579517e+02
2.282097825297393801e+00,7.609764770597514882e+00,6.783930289047624740e+00,5.880031336464244460e-03,-1.132754448354852929e-05,-9.999827124021539726e-01,3.434073116384936952e+02
2.366822170370641132e+00,7.881538888023700729e+00,6.769819062503226625e+00,2.772471173830466824e-03,-5.341007343985522242e-06,-9.999961566801464086e-01,3.449658288046294388e+02
2.444257013257187250e+00,8.147370799658494533e+00,6.739922276930512268e+00,0.000000000000000000e+00,-0.000000000000000000e+00,-1.000000000000000000e+00,3.465243459707651823e+02
2.514277658408486715e+00,8.405926327704886347e+00,6.694679973803096651e+00,0.000000000000000000e+00,-5.285464623159729031e-04,-9.999998603193088753e-01,3.480828631369009258e+02
2.577571590344584607e+00,8.655633182062018705e+00,6.635178569751062128e+00,0.000000000000000000e+00,-1.057094695340423437e-03,-9.999994412752464257e-01,3.496413803030366694e+02
2.582856304102731038e+00,8.678248953436995095e+00,6.628863841246630528e+00,0.000000000000000000e+00,-1.585644256109098541e-03,-9.999987428653562826e-01,3.497854837638929553e+02
2.634436113671033475e+00,8.916751566544839136e+00,6.552519739465958004e+00,0.000000000000000000e+00,-2.114194701650326611e-03,-9.999977650878842939e-01,3.513440009300286988e+02
2.681441295937018410e+00,9.142710197060658572e+00,6.464874098069285147e+00,0.000000000000000000e+00,-2.642745588986872458e-03,-9.999965079417786340e-01,3.529025180961644423e+02
2.724842286476555575e+00,9.354319431022267040e+00,6.367548276708769883e+00,0.000000000000000000e+00,-3.171296475137796392e-03,-9.999949714266902490e-01,3.544610352623001859e+02
2.765579146492678664e+00,9.549718216652907543e+00,6.262242626141929946e+00,0.000000000000000000e+00,-3.699846917120304304e-03,-9.999931555429716346e-01,3.560195524284359294e+02
2.804564497249153909e+00,9.726978127630781401e+00,6.150622144308007577e+00,0.000000000000000000e+00,-4.228396471951612057e-03,-9.999910602916788349e-01,3.575780695945716730e+02
2.842687105804716730e+00,9.884096260449373617e+00,6.034323852709496450e+00,0.000000000000000000e+00,-4.756944696650794273e-03,-9.999886856745695551e-01,3.591365867607074165e+02
2.880815303583310172e+00,1.001898782731970527e+01,5.914964048850967160e+00,0.000000000000000000e+00,-5.285491148240647856e-03,-9.999860316941041605e-01,3.606951039268431600e+02
2.919800250790844931e+00,1.012947841774942681e+01,5.794145466865236571e+00,0.000000000000000000e+00,-5.814035383749541208e-03,-9.999830983534453432e-01,3.622536210929789036e+02
2.960479058764906135e+00,1.021329590060021886e+01,5.673464378050296908e+00,0.000000000000000000e+00,-6.342576960213278624e-03,-9.999798856564584559e-01,3.638121382591146471e+02
3.003677781463584662e+00,1.026806193699077774e+01,5.554517662774205888e+00,0.000000000000000000e+00,-6.871115434676946035e-03,-9.999763936077108450e-01,3.653706554252503906e+02
3.050214286458252211e+00,1.029128307287253641e+01,5.438909885078026640e+00,0.000000000000000000e+00,-7.399650364196775840e-03,-9.999726222124721842e-01,3.669291725913861342e+02
3.100901014988116433e+00,1.028034137845248353e+01,5.328260401319140804e+00,-0.000000000000000000e+00,-7.928181305841998719e-03,-9.999685714767146960e-01,3.684876897575218777e+02
3.116335550301228885e+00,1.027063987749736818e+01,5.298998372005825352e+00,-0.000000000000000000e+00,-4.806577624515451230e-02,-9.988441726084960059e-01,3.689218791050506070e+02
3.176444931645413750e+00,1.021153983190817627e+01,5.200082204345673809e+00,7.712678719922817783e-02,-1.085921865346291260e-01,-9.910899029452138187e-01,3.704803962711863505e+02
3.202923486347029502e+00,1.017580484478016345e+01,5.162161687202061700e+00,1.624178170216581119e-01,-1.749755400542253592e-01,-9.710839372045299012e-01,3.711203891551471088e+02
3.270948563410099208e+00,1.006191112829211498e+01,5.076363634901268185e+00,2.536693493522958476e-01,-2.453236109086477934e-01,-9.356645697737653311e-01,3.726789063212828523e+02
3.340644345964341788e+00,9.915226904503262162e+00,4.997020836562727553e+00,3.471009888032655644e-01,-3.165530477390819941e-01,-8.827882370868416206e-01,3.742374234874185959e+02
3.409743645871326834e+00,9.738519173148253216e+00,4.923590559274501288e+00,4.377729350879893677e-01,-3.847699980570213341e-01,-8.125927060339926955e-01,3.757959406535543394e+02
3.475998503649645244e+00,9.534456840375829856e+00,4.855556264102600217e+00,5.206514877210505210e-01,-4.461371322638156833e-01,-7.279311008256725835e-01,3.773544578196900829e+02
3.537169196877984589e+00,9.305620694714724195e+00,4.792425317688508990e+00,5.918951582385416632e-01,-4.978649868883559537e-01,-6.338695263888529663e-01,3.789129749858258265e+02
3.591013365511656730e+00,9.054513123998857438e+00,4.733726809755313347e+00,6.496712828931185957e-01,-5.387906524858540047e-01,-5.363132079092188809e-01,3.804714921519615700e+02
3.635275202628242663e+00,8.783567609296502710e+00,4.679009466852829036e+00,6.941411038190744565e-01,-5.692951853270031837e-01,-4.405350382799646525e-01,3.820300093180973136e+02
3.667674659705934648e+00,8.495158031390644737e+00,4.627839653098690498e+00,7.268324470114424507e-01,-5.907661299070772198e-01,-3.502998340364623653e-01,3.835885264842330571e+02
3.685896615892709338e+00,8.191607824991091746e+00,4.579799449058905125e+00,6.659408143998415408e-01,-6.064293132035746270e-01,-4.344724615023566883e-01,3.851470436503688006e+02
3.687675579353727251e+00,7.875208033751991188e+00,4.534497147162649178e+00,5.915453388474738450e-01,-6.158512048960568253e-01,-5.203858237076626203e-01,3.867055608165045442e+02
3.672457508282226168e+00,7.548060547249899166e+00,4.491782384091073332e+00,5.042741435897027946e-01,-6.170920924689662357e-01,-6.040736192875374444e-01,3.882640779826402877e+02
3.642876382698906124e+00,7.211888082996742888e+00,4.451937648572235062e+00,4.065793498239053672e-01,-6.089239587970685097e-01,-6.811056046603027880e-01,3.898225951487760312e+02
3.603090712252043026e+00,6.868184346119456940e+00,4.415462665125714281e+00,3.025643130579389051e-01,-5.912901520936642008e-01,-7.475498595417090497e-01,3.913811123149117748e+02
3.557224360635732996e+00,6.518386809681376626e+00,4.382872087124850324e+00,1.971814971823325491e-01,-5.654057093211224405e-01,-8.008968978813765238e-01,3.929396294810475183e+02
3.509384901646375621e+00,6.163882308294246215e+00,4.354697776847818780e+00,9.513405089327506281e-02,-5.334139219176540214e-01,-8.404874182669617166e-01,3.944981466471832618e+02
3.474435731862715482e+00,5.890819654470026201e+00,4.336937449790009502e+00,-3.922727135722589525e-07,-4.977924865101806540e-01,-8.672961664701728246e-01,3.956877257025684571e+02
3.433348458086904031e+00,5.531232612964275042e+00,4.318524370766408715e+00,-3.883794129072894670e-07,-4.436416754356058423e-01,-8.962042534023914042e-01,3.972462428687042006e+02
3.397711333059932226e+00,5.171356607242694636e+00,4.303870030514286071e+00,-3.823767741426240537e-07,-3.818753166141269362e-01,-9.242138510976309895e-01,3.988047600348399442e+02
3.367689083111392367e+00,4.813026934672899770e+00,4.291325988553815307e+00,-3.737440594959042968e-07,-3.119168446094175429e-01,-9.501094053048653176e-01,4.003632772009756877e+02
3.343486861105777308e+00,4.458083482661239216e+00,4.279253153551308309e+00,-3.619391078159185290e-07,-2.335266231682692761e-01,-9.723504081716086711e-01,4.019217943671114313e+02
3.325351244931672223e+00,4.108377394752159795e+00,4.266014521713549890e+00,-3.464664463285810509e-07,-1.470006553156332774e-01,-9.891363947083610109e-01,4.034803115332471748e+02
3.313571478595736419e+00,3.765777771674433616e+00,4.249967924430985811e+00,-3.269757434447544450e-07,-5.336016849615700386e-02,-9.985753313686227539e-01,4.050388286993829183e+02
3.308480961951320687e+00,3.432178430966011273e+00,4.229458753039079255e+00,-3.033750496599303514e-07,4.554198722470919475e-02,-9.989624254192608355e-01,4.065973458655186619e+02
3.310458996416044020e+00,3.109504748983548783e+00,4.202812628466155331e+00,-2.759244192893631713e-07,1.470824015150478670e-01,-9.891242425319937137e-01,4.081558630316544054e+02
3.319932795393177205e+00,2.799720609358584245e+00,4.168327983294261685e+00,-2.452661501952047601e-07,2.481412919746380785e-01,-9.687238508559068428e-01,4.097143801977901489e+02
3.337379769512324401e+00,2.504835482303132022e+00,4.124268523371846129e+00,-2.123625340390239568e-07,3.455466554809859536e-01,-9.384015712294282441e-01,4.112728973639258925e+02
3.363330098252021116e+00,2.226911659586907177e+00,4.068855535581598737e+00,-1.783504045438591183e-07,4.365537209111617911e-01,-8.996781917766972780e-01,4.128314145300616360e+02
3.398369600987408035e+00,1.968071670508061644e+00,4.000260007689449004e+00,-1.443610182649867043e-07,5.191997189205335150e-01,-8.546529423531040726e-01,4.143899316961973796e+02
3.442076313033446411e+00,1.730397807688372591e+00,3.916764713697692635e+00,-1.113658783700869194e-07,5.924382257502988081e-01,-8.056158815898711856e-01,4.159484488623331231e+02
3.491951333366055010e+00,1.515817122624908642e+00,3.817009859688801132e+00,-8.008801197503763405e-08,6.560619520734652932e-01,-7.547070392155804663e-01,4.175069660284688666e+02
3.544472189529893846e+00,1.325998530215986460e+00,3.700267357850247407e+00,-5.098356935466450721e-08,7.104965196464970711e-01,-7.037007144874959375e-01,4.190654831946046102e+02
3.596140596387797927e+00,1.162287354209286416e+00,3.566551768621454066e+00,-2.427371304219952290e-08,7.565604002825001562e-01,-6.539238187467882879e-01,4.206240003607403537e+02
3.643464619026835383e+00,1.025942559745861571e+00,3.416169878610621602e+00,0.000000000000000000e+00,7.952565528098449743e-01,-6.062730533456045512e-01,4.221825175268760972e+02
3.678198204487388434e+00,9.325907767704969542e-01,3.273536196963854117e+00,2.476253636573906607e-06,8.324467533089332516e-01,-5.541050468090723546e-01,4.235205450007406967e+02
3.711128545202476481e+00,8.519605053236259939e-01,3.093769222887627901e+00,5.640665683718350194e-06,8.751844564820029371e-01,-4.837893829968614723e-01,4.250790621668764402e+02
3.736801367105638594e+00,8.004976050603087590e-01,2.903183390895475391e+00,9.725750048084375680e-06,9.221732486596686540e-01,-3.867770667476068125e-01,4.266375793330121837e+02
3.755495370091618490e+00,7.785552026074816778e-01,2.704675640584741636e+00,1.497280984076910268e-05,9.679686743598217014e-01,-2.510709964012262096e-01,4.281960964991479273e+02
3.767460754435352221e+00,7.865960128257283301e-01,2.501107815345182672e+00,2.144016425297681159e-05,9.979725559407913726e-01,-6.364571571852531418e-02,4.297546136652836708e+02
3.772921251959252764e+00,8.251942687855943204e-01,2.295319341072175501e+00,2.854065119618324432e-05,9.840577810946217197e-01,1.778490445646553897e-01,4.313131308314194143e+02
3.772076053820001551e+00,8.950380591392201879e-01,2.090139805558991704e+00,3.465586189198808386e-05,8.961788482224291030e-01,4.436929916030810106e-01,4.328716479975551579e+02
3.765101647022455644e+00,9.969320823300615864e-01,1.888401494289147386e+00,3.805420165564011507e-05,7.380433369987791092e-01,6.747533114135745302e-01,4.344301651636909014e+02
3.752151653865289482e+00,1.131093954338321161e+00,1.692530479635547147e+00,3.859229575545408903e-05,5.544291991828926847e-01,8.322308944061443947e-01,4.359886823298266449e+02
3.733348252919082011e+00,1.296181530902323242e+00,1.503851320297123095e+00,3.743202471289653433e-05,3.871874708918134900e-01,9.220010092094500509e-01,4.375471994959623885e+02
3.708770602081321588e+00,1.489728176901737422e+00,1.322729797828372078e+00,3.566108361537981400e-05,2.515017958347174343e-01,9.678568310551923792e-01,4.391057166620981320e+02
3.682842948376657599e+00,1.676436399336131977e+00,1.174656669673289633e+00,3.384399419724403601e-05,1.458640764894891251e-01,9.893046396557798605e-01,4.404361574521281568e+02
3.646672179979522976e+00,1.917924194365220103e+00,1.009049627246668468e+00,3.219129735899206146e-05,6.403436580530771915e-02,9.979476934988288361e-01,4.419946746182639004e+02
3.604712400669074945e+00,2.180538613583685947e+00,8.515213318395176145e-01,3.075312632428030919e-05,0.000000000000000000e+00,9.999999995271227071e-01,4.435531917843996439e+02
3.557271552135770953e+00,2.461972772217478234e+00,7.023128570668404347e-01,-6.914908094207843081e-02,4.426264073441087826e-02,9.966239126371001511e-01,4.451117089505353874e+02
3.505441121523587888e+00,2.760104834838990495e+00,5.617458800493199123e-01,-1.393145613202159960e-01,8.915578047204314460e-02,9.862264951888976006e-01,4.466702261166711310e+02
3.450689196574809436e+00,3.072926273256065599e+00,4.302022342643424535e-01,-2.089875451123986427e-01,1.337336709083944419e-01,9.687308765871243121e-01,4.482287432828068745e+02
3.410140868617427934e+00,3.306058062527745367e+00,3.424985090444050417e-01,-2.766898756175777963e-01,1.770505637220819162e-01,9.445082374529203406e-01,4.493474197735874895e+02
3.353153306954172574e+00,3.641048508584537657e+00,2.301208616176622368e-01,-3.410962246890796856e-01,2.182585015634783132e-01,9.143394293139293083e-01,4.509059369397232331e+02
3.296980149905579971e+00,3.985247942807343069e+00,1.279844133334371858e-01,-2.691233342054697442e-01,7.957789578264730379e-02,9.598124762102945295e-01,4.524644541058589766e+02
3.242478039677056056e+00,4.336806155490850578e+00,3.618221600035689128e-02,-1.851264871243306909e-01,-6.959135457478329845e-02,9.802475336023304120e-01,4.540229712719947202e+02
3.190319139874399301e+00,4.693901640286498811e+00,-4.529991099799259707e-02,-9.562684432648291266e-02,-2.166920323325239595e-01,9.715451969763213569e-01,4.555814884381304637e+02
3.141171637855289855e+00,5.054729276077437383e+00,-1.164304276619822220e-01,-8.509972854394485045e-03,-3.496798190746399082e-01,9.368306167573433596e-01,4.571400056042662072e+02
3.095702893482902951e+00,5.417493533496086755e+00,-1.771319336409269973e-01,-7.210492897662458024e-03,-2.870728118846698207e-01,9.578816260210871736e-01,4.586985227704019508e+02
3.054582529398182977e+00,5.780401696690054436e+00,-2.272808253266775380e-01,-5.848248936468263513e-03,-2.217144362545782066e-01,9.750941014797964712e-01,4.602570399365376943e+02
3.018485476909951615e+00,6.141657075111249142e+00,-2.667067482553252544e-01,-4.439455232066485957e-03,-1.543974631502528228e-01,9.879988434254408647e-01,4.618155571026734378e+02
2.988094991196622807e+00,6.499452179972386112e+00,-2.951918423896322530e-01,-3.002978593424251042e-03,-8.603099541126849048e-02,9.962879352617464157e-01,4.633740742688091814e+02
2.964105649168169876e+00,6.851961839790626563e+00,-3.124697769387690949e-01,-1.559121789379439970e-03,-1.758130603469860997e-02,9.998442212751744718e-01,4.649325914349449249e+02
2.947226343048279240e+00,7.197336229121239271e+00,-3.182245704434288891e-01,-1.282131218311409742e-04,4.999528849846868184e-02,9.987494454012729728e-01,4.664911086010806684e+02
2.938183282507059069e+00,7.533693784170663044e+00,-3.120891908987351027e-01,1.270775055453924251e-03,1.158169168312461056e-01,9.932697654245107310e-01,4.680496257672164120e+02
2.937560657871978620e+00,7.842649942835538290e+00,-2.946598357126237744e-01,1.182596635391310463e-01,0.000000000000000000e+00,9.929827047736590195e-01,4.695283400084431378e+02
2.945571282375716748e+00,8.155891101509601171e+00,-2.637645427029616796e-01,5.933522247561948820e-02,-5.863831544417812819e-02,9.965143648415901723e-01,4.710868571745788813e+02
2.962425246631353204e+00,8.455019690916408592e+00,-2.200391560361889265e-01,0.000000000000000000e+00,-1.168706797253571267e-01,9.931471412739065752e-01,4.726453743407146249e+02
2.983510573032948088e+00,8.689200835658724031e+00,-1.732919680492659154e-01,0.000000000000000000e+00,-1.080085876206762080e-01,9.941499610220717598e-01,4.739303468834498858e+02
3.017378941023124206e+00,8.956636349516069018e+00,-1.036665905582400821e-01,0.000000000000000000e+00,-9.913224432991428470e-02,9.950742676474526593e-01,4.754888640495856293e+02
3.058981609224470599e+00,9.205334284849964632e+00,-2.134881791482693553e-02,0.000000000000000000e+00,-9.024375248677699024e-02,9.959197081778757843e-01,4.770473812157213729e+02
3.107744734341157944e+00,9.433834625319503786e+00,7.309997883285539177e-02,0.000000000000000000e+00,-8.134522646230843423e-02,9.966859857205757622e-01,4.786058983818571164e+02
3.163280191445918543e+00,9.640926615889261697e+00,1.789698998435403643e-01,0.000000000000000000e+00,-7.243878985593504849e-02,9.973728599296290964e-01,4.801644155479928600e+02
3.225303272029587109e+00,9.825481735146697204e+00,2.955756759051472171e-01,0.000000000000000000e+00,-6.352657296410228749e-02,9.979801473613774121e-01,4.817229327141286035e+02
3.293549370208050497e+00,9.986288289728832979e+00,4.222796004712178752e-01,0.000000000000000000e+00,-5.461071023353653714e-02,9.985077217166568042e-01,4.832814498802643470e+02
3.367772087737509690e+00,1.012204671480228946e+01,5.584887044517727883e-01,0.000000000000000000e+00,-4.569333770623251745e-02,9.989555139690977636e-01,4.848399670464000906e+02
3.447741382801472021e+00,1.023136455563021840e+01,7.036521292026645114e-01,0.000000000000000000e+00,-3.677659046329879305e-02,9.993235123791968100e-01,4.863984842125358341e+02
3.533241751487217197e+00,1.031275111103747655e+01,8.572586860751276738e-01,0.000000000000000000e+00,-2.786260007479053613e-02,9.996117623943168162e-01,4.879570013786715776e+02
3.573896663479186664e+00,1.033896350399885833e+01,9.297848966491756295e-01,-5.555265907608727960e-02,-2.792129557831063077e-02,9.980652800908389466e-01,4.886577513252743756e+02
3.667674560910832326e+00,1.037454843842217045e+01,1.098276978687174887e+00,-1.174870093104762037e-01,-2.788476468301195887e-02,9.926828509357120689e-01,4.902162684914101192e+02
3.762201618996104724e+00,1.038298811435798896e+01,1.273647486551896524e+00,-1.861155328955614030e-01,-2.771657467916689016e-02,9.821368539582737700e-01,4.917747856575458627e+02
3.854420892902561402e+00,1.036586238712503771e+01,1.455306394703770101e+00,-2.614108778476544881e-01,-2.737241605967761018e-02,9.648394186505724335e-01,4.933333028236816062e+02
3.941277370804177504e+00,1.032467520064212962e+01,1.642691536855364731e+00,-3.428078691903729269e-01,-2.680198892364997129e-02,9.390231191035143254e-01,4.948918199898173498e+02
4.019703467281617648e+00,1.026086029658035059e+01,1.835266115418910049e+00,-4.289964503921415706e-01,-2.595398265566617110e-02,9.029332402427391324e-01,4.964503371559530933e+02
4.087435433710545851e+00,1.017576033762734511e+01,2.032296869150271412e+00,-5.177809008713382122e-01,-2.478491547860581928e-02,8.551541654331012987e-01,4.980088543220888369e+02
4.143833165943170194e+00,1.007059832854716142e+01,2.232631370409294380e+00,-6.061159840705517832e-01,-2.327108565170448590e-02,7.950357667594444289e-01,4.995673714882245804e+02
4.189045367750451554e+00,9.946497753810584541e+00,2.434912373789419604e+00,-6.904158700431131113e-01,-2.142034520621085777e-02,7.230954952175114858e-01,5.011258886543603239e+02
4.223178566102820497e+00,9.804509797663783388e+00,2.637791257357847474e+00,-7.671287470159814381e-01,-1.927831074900988179e-02,6.412034250036060534e-01,5.026844058204960675e+02
4.246297030642267600e+00,9.645617592916369887e+00,2.839922047911769276e+00,-8.334094861199334847e-01,-1.692442609143754093e-02,5.523967706701261582e-01,5.042429229866318110e+02
4.258422533876493610e+00,9.470740214088326780e+00,3.039955457966348806e+00,-8.876244150680007161e-01,-1.445786758362158954e-02,4.603410342779839515e-01,5.058014401527675545e+02
4.259533949006698350e+00,9.280736431058393521e+00,3.236532908056573454e+00,-9.294923277768640801e-01,-1.197876146531942632e-02,3.686468796527424541e-01,5.073599573189032981e+02
4.249566681687967140e+00,9.076408238476572521e+00,3.428280507870758775e+00,-9.598620564334917615e-01,-9.572139127681761339e-03,2.803091271646154792e-01,5.089184744850390416e+02
4.228411931382875188e+00,8.858504175384464219e+00,3.613802969551878963e+00,-9.802908176739166812e-01,-7.299311140947941853e-03,1.974250056124391417e-01,5.104769916511747851e+02
4.195915777305328831e+00,8.627722448726272475e+00,3.791677426202295642e+00,-9.926162032061590645e-01,-5.196857897698283803e-03,1.211860792359424760e-01,5.120355088173105287e+02
4.151878083259724406e+00,8.384713873729863209e+00,3.960447128206331158e+00,-9.986396080352842874e-01,-3.280560645867576074e-03,5.204009209237283468e-02,5.135940259834462722e+02
4.123001371192113851e+00,8.253282661722062485e+00,4.042866936418913149e+00,-9.999478926958880187e-01,-1.551183133176783219e-03,-1.008988225601186936e-02,5.144040521767620930e+02
4.055727380481545019e+00,7.991093175400158621e+00,4.189994448588651110e+00,-9.978458252684040408e-01,-0.000000000000000000e+00,-6.560265996449830828e-02,5.159625693428978366e+02
3.976621205846822438e+00,7.718455816696240035e+00,4.324402588050478613e+00,-9.542860265570826117e-01,4.635759357686472168e-03,-2.988589788731011443e-01,5.175210865090335801e+02
3.886487680809112000e+00,7.436116542821943121e+00,4.445799965380900609e+00,-8.379998501672565325e-01,9.629851940653607126e-03,-5.455854809938188721e-01,5.190796036751693237e+02
3.817756708544761235e+00,7.236187434223091408e+00,4.520509910910704754e+00,-6.593485756824347677e-01,1.390727745379293293e-02,-7.517087490373967062e-01,5.201518175841605398e+02
3.709077292445217555e+00,6.938064505004287952e+00,4.616289796288817193e+00,-4.636033419589984383e-01,1.679420156749854981e-02,-8.858836809187525807e-01,5.217103347502962833e+02
