3.323516127907318207e+00,5.107965554702794009e+00,3.853413388618712077e+00,-4.071975151367399071e-01,-4.501644515105438504e-01,-7.946962628971371290e-01,5.265829703413149154e+00
3.416898620115823793e+00,5.083180571537152304e+00,3.816088201977301697e+00,-5.316857912605653658e-01,-4.157354299466173297e-01,-7.378849989386744301e-01,6.582287129266436665e+00
3.508513255147334142e+00,5.069088083925308297e+00,3.781854102704774956e+00,-6.530765172131669516e-01,-3.697630764597720776e-01,-6.608829926331321047e-01,7.898744555119724176e+00
3.597143787380051805e+00,5.066031041446484195e+00,3.751830835148012522e+00,-7.619225098614855751e-01,-3.139817531332063649e-01,-5.664711357746066156e-01,9.215201980973011686e+00
3.597948895958426707e+00,5.066054343567523155e+00,3.751574324177767483e+00,-8.506969373168938864e-01,-2.522488059920159342e-01,-4.611781225462228129e-01,9.227429410481818195e+00
3.681830589052758729e+00,5.073984196261034363e+00,3.726886388535135541e+00,-9.161937546424738787e-01,-1.893143911991935491e-01,-3.531983369708934228e-01,1.054388683633510482e+01
3.759363155750307328e+00,5.092382045038104543e+00,3.708492315456370036e+00,-9.596494619771028800e-01,-1.292843170562131827e-01,-2.497167905655636733e-01,1.186034426218839144e+01
3.828842313313449264e+00,5.121032617384683405e+00,3.697457121723175089e+00,-9.850281196432815189e-01,-7.474792039666368348e-02,-1.553459104978151262e-01,1.317680168804167806e+01
3.888536528182710672e+00,5.159764331095933798e+00,3.694869406152659241e+00,-9.970402554817913154e-01,-2.677430557181230408e-02,-7.206847792170553713e-02,1.449325911389496468e+01
3.936681683512516461e+00,5.208448926359653619e+00,3.701844838087038791e+00,-9.998929495611769136e-01,1.463179475832167287e-02,0.000000000000000000e+00,1.580971653974825131e+01
3.972194787721342824e+00,5.266438609917563518e+00,3.718896415422861867e+00,-9.977244028896393724e-01,1.534194181650660321e-02,-6.565546968693201924e-02,1.712617396560153793e+01
3.995385220497023937e+00,5.331995621088400306e+00,3.745302791337623116e+00,-9.906088227912990263e-01,1.603023663569084351e-02,-1.357836209615884970e-01,1.844263139145482455e+01
4.007229793919068861e+00,5.402840684369276225e+00,3.779739279892922799e+00,-9.776222997949685078e-01,1.667549199681489860e-02,-2.097059057591386666e-01,1.975908881730811117e+01
4.007495200247203293e+00,5.409391686581748182e+00,3.783300432581602646e+00,-9.579605819094045849e-01,1.725416732185638610e-02,-2.863805461581219181e-01,1.987573621974153681e+01
4.002126497076909928e+00,5.485176709540311002e+00,3.828542568208569197e+00,-9.310680908955374369e-01,1.774238391711368060e-02,-3.644138004097500771e-01,2.119219364559482344e+01
3.987276624471670861e+00,5.561522197548065982e+00,3.879127668107808624e+00,-8.967645091257945289e-01,1.811864789037474430e-02,-4.421370033948723854e-01,2.250865107144811006e+01
3.963756054726425671e+00,5.636166561731644542e+00,3.933808537224080304e+00,-8.553341928270703498e-01,1.836679040489429607e-02,-5.177509822212670310e-01,2.382510849730139668e+01
3.932333177687429071e+00,5.706837839394047762e+00,3.991351105667444443e+00,-8.075453173475429791e-01,1.847839407994419925e-02,-5.895159958663398481e-01,2.514156592315468330e+01
3.893736700472673284e+00,5.771246624074621856e+00,4.050530474049931939e+00,-7.545832230757943959e-01,1.845399941907511013e-02,-6.559448218851846590e-01,2.645802334900796993e+01
3.848657874890050401e+00,5.827078925069105075e+00,4.110126988210236476e+00,-6.979102342170168116e-01,1.830273237234128145e-02,-7.159513356107767290e-01,2.777448077486125655e+01
3.797752559254417459e+00,5.871988934439974273e+00,4.168922330747125926e+00,-6.390884849973207382e-01,1.804051513042806074e-02,-7.689216137927572525e-01,2.909093820071454317e+01
3.741643120632881292e+00,5.903591679209806209e+00,4.225695616836054214e+00,-5.796105028042571883e-01,1.768744845777307437e-02,-8.147016749743736241e-01,3.040739562656782979e+01
3.680920182891934456e+00,5.919455536025391318e+00,4.279219481818076432e+00,-5.207722538080101771e-01,1.726509025816886159e-02,-8.535210462092325256e-01,3.172385305242111642e+01
3.616144225279268376e+00,5.917094585105645344e+00,4.328256148023792882e+00,-4.636033419589984383e-01,1.679420156749854981e-02,-8.858836809187525807e-01,3.304031047827440659e+01
3.547998375992700737e+00,5.894918337677723663e+00,4.371849724216641420e+00,-4.108079722564044189e-01,1.590095817386524835e-02,-9.115832213570708165e-01,3.435676790412769321e+01
3.477449465211895685e+00,5.853183069678467909e+00,4.409619408361023396e+00,-3.553824449837086341e-01,1.493131753603475602e-02,-9.346017192120070760e-01,3.567322532998097984e+01
3.434216643974973504e+00,5.816969755458994307e+00,4.428784117433703038e+00,-2.978194015759768609e-01,1.389217952335161654e-02,-9.545211424546959922e-01,3.646471163323695208e+01
3.361862694599564882e+00,5.739127324918783302e+00,4.454656700738717667e+00,-2.387051839860303559e-01,1.279307583020395343e-02,-9.710078127126464675e-01,3.778116905909023870e+01
3.290041857693387417e+00,5.644583449467036829e+00,4.474362933288010602e+00,-1.786916420741291867e-01,1.164577410073641510e-02,-9.838362023215276864e-01,3.909762648494352533e+01
3.219880876640995648e+00,5.534294187760788297e+00,4.487741724744386040e+00,-1.184608164741619701e-01,1.046366001118482353e-02,-9.929035938999543065e-01,4.041408391079681195e+01
3.152517605582868310e+00,5.409157831900403224e+00,4.494611708029500718e+00,-5.868685425890936280e-02,9.260971048004495998e-03,-9.982334834859234451e-01,4.173054133665009857e+01
3.089104341883033289e+00,5.270017723712676627e+00,4.494770658119912277e+00,0.000000000000000000e+00,8.051981727478133011e-03,-9.999675822696755256e-01,4.304699876250338519e+01
3.030656355949503666e+00,5.117800473214480839e+00,4.488316072538397705e+00,-2.641852358811601006e-02,4.611553463717468077e-03,-9.996403329128309423e-01,4.436345618835667182e+01
2.977901117331283043e+00,4.953655702582025810e+00,4.475966712327589470e+00,-5.291287395266314197e-02,1.155503714020331141e-03,-9.985984641392336991e-01,4.567991361420995844e+01
2.965840970904148666e+00,4.908393933596239656e+00,4.471500209976452922e+00,-7.942636511372007380e-02,-2.308822596854668858e-03,-9.968380620055788954e-01,4.602072397346815080e+01
2.925825497442404721e+00,4.723678923902591364e+00,4.449981945561559904e+00,-1.059018205824557302e-01,-5.773979558593799084e-03,-9.943598270029709862e-01,4.733718139932143742e+01
2.892917733297458938e+00,4.529855536677544592e+00,4.424852616439823194e+00,-1.322821864937874237e-01,-9.232499855128821833e-03,-9.911690996408473175e-01,4.865363882517472405e+01
2.867797271935607739e+00,4.328061603156553083e+00,4.397092359952724294e+00,-1.585111447391135686e-01,-1.267697501258889178e-02,-9.872758030550662367e-01,4.997009625102801067e+01
2.851175853129169990e+00,4.119404953717734408e+00,4.367672882441421933e+00,-1.845337107867846826e-01,-1.610013431129671962e-02,-9.826943040734578139e-01,5.128655367688129729e+01
2.843799490324799617e+00,3.904966783105633166e+00,4.337560573149436216e+00,-9.901404437116999302e-02,8.637241883485029248e-02,-9.913304314313574617e-01,5.260301110273458391e+01
2.846450729384636169e+00,3.685804916234175277e+00,4.307719601086246186e+00,-1.172313510397501000e-02,1.872998695120954571e-01,-9.822328272787903547e-01,5.391946852858787054e+01
2.859611210257493763e+00,3.462973546166661531e+00,4.278615969024837540e+00,-1.220091281247373538e-02,1.949537538313114160e-01,-9.807365454563333751e-01,5.523592595444115716e+01
2.883123418386397852e+00,3.237545755996443120e+00,4.249719971090232917e+00,-1.276360919802236454e-02,2.039680543934862256e-01,-9.788943370288623047e-01,5.655238338029444378e+01
2.890603607351071691e+00,3.186616523248250843e+00,4.243109517072197079e+00,-1.343587728344407609e-02,2.147377311788101484e-01,-9.765793280680281629e-01,5.684767871558720742e+01
2.933518451985308584e+00,2.958665444240539344e+00,4.212443075168931017e+00,-1.425282943253949192e-02,2.278253171433574642e-01,-9.735977001419506838e-01,5.816413614144049404e+01
2.985826373430218172e+00,2.730625074613837633e+00,4.179707875257965277e+00,-1.526615960177925106e-02,2.440590096581229662e-01,-9.696402137781359176e-01,5.948059356729378067e+01
3.047178790742522736e+00,2.503575428340581777e+00,4.143863536611482878e+00,-1.655504475397892583e-02,2.647073387819043888e-01,-9.641866807253643978e-01,6.079705099314706729e+01
3.116416393831636711e+00,2.279029599133322925e+00,4.102777136212541365e+00,-1.824668672747048470e-02,2.918083114894768348e-01,-9.563027594695783229e-01,6.211350841900035391e+01
3.157154879388009761e+00,2.159311684110792662e+00,4.075584559246951954e+00,-2.055765000766202402e-02,3.288318031892338844e-01,-9.441647251605408409e-01,6.283017714021274003e+01
3.234750680998690342e+00,1.946315250439881295e+00,4.012600246557488148e+00,-2.388332252960837995e-02,3.821131773639857565e-01,-9.238068556737094594e-01,6.414663456606602665e+01
3.312607642349794101e+00,1.742879195818115123e+00,3.932915400598514299e+00,-2.900408785584795632e-02,4.641576898696015974e-01,-8.852775846154498085e-01,6.546309199191931327e+01
3.390615189541973162e+00,1.551899482202999003e+00,3.835883050800560579e+00,-3.753560012962869202e-02,6.008600698899317916e-01,-7.984724510806712194e-01,6.677954941777259990e+01
3.470356893735227377e+00,1.376086132945357532e+00,3.723547491490967420e+00,-5.186259083457395863e-02,8.304730373336410842e-01,-5.546393476248888676e-01,6.809600684362588652e+01
3.503222325978774254e+00,1.312653698658401424e+00,3.673103040954994292e+00,-6.202735248873837010e-02,9.936140512903820499e-01,9.425351251572489097e-02,6.862338062057210664e+01
3.587007719076654944e+00,1.173778994037455004e+00,3.534533651607674631e+00,-4.441748260346523036e-02,7.118341867072545126e-01,7.009416365675479321e-01,6.993983804642539326e+01
3.671791820221240510e+00,1.056731027686805158e+00,3.384493205537183247e+00,-2.748051104302158543e-02,4.406308052576596856e-01,8.972676941530887129e-01,7.125629547227867988e+01
3.756939891514041285e+00,9.632260719951124539e-01,3.225191822202587044e+00,-1.808111668668577199e-02,2.900986014055333961e-01,9.568259375047878379e-01,7.257275289813196650e+01
3.842005643371118051e+00,8.931141911182886028e-01,3.060182376905087320e+00,-1.259895814239843197e-02,2.022952367960190179e-01,9.792435363194228470e-01,7.388921032398525313e+01
3.926629029487035183e+00,8.453505337226360217e-01,2.893685669572177765e+00,-9.093407741648087961e-03,1.461474831467071134e-01,9.892210183298407733e-01,7.520566774983853975e+01
4.010442336174975253e+00,8.189645356316805902e-01,2.729917734763389170e+00,-6.681054916258762945e-03,1.075083346832099024e-01,9.941817346334869132e-01,7.652212517569182637e+01
4.093067235659999525e+00,8.119863181321222978e-01,2.573164383521130194e+00,-4.926962645900426901e-03,7.941220764898568318e-02,9.968296877177165172e-01,7.783858260154511299e+01
4.174102439957605881e+00,8.201353358722267561e-01,2.427842966339621267e+00,-3.596999312696478549e-03,5.810929189197211464e-02,9.983037472591986816e-01,7.915504002739839962e+01
4.222087421261369045e+00,8.311337614472680269e-01,2.348980665243113108e+00,-2.555253207003645079e-03,4.142278740447092461e-02,9.991384405399944546e-01,7.995431936971063180e+01
4.298711591884615046e+00,8.544104672119495758e-01,2.238207027627258316e+00,-1.717847480859640945e-03,2.800927079218417867e-02,9.996061873306520962e-01,8.127077679556391843e+01
4.372456119638656880e+00,8.774554085115934265e-01,2.150787809996246303e+00,-1.030376812883026898e-03,1.699733870021114326e-02,9.998550038884306268e-01,8.258723422141720505e+01
4.442442406140028055e+00,8.954164792228376246e-01,2.090357764729771084e+00,-4.560779177859680916e-04,7.798150504725575791e-03,9.999694899553878136e-01,8.390369164727049167e+01
4.507110970672246530e+00,9.056279992377962440e-01,2.058584860467939759e+00,3.075312632428030919e-05,0.000000000000000000e+00,9.999999995271227071e-01,8.522014907312377829e+01
4.533303619965866282e+00,9.061794416367983107e-01,2.057330194212803498e+00,-7.896110403326194946e-03,0.000000000000000000e+00,9.999688252343162942e-01,8.581731200704206231e+01
4.583172373900135099e+00,8.983120370063619742e-01,2.083222549231587450e+00,-8.239009017156465747e-03,5.927082705929342249e-02,9.982079381522281913e-01,8.713376943289534893e+01
4.624871810660130755e+00,8.830658459125978466e-01,2.135999277578918942e+00,-8.630124172752813225e-03,1.337204202386725049e-01,9.909815185804202731e-01,8.845022685874863555e+01
4.658389437198488636e+00,8.630868662789016321e-01,2.212863649893576756e+00,-9.061198787644816899e-03,2.281496000440189076e-01,9.735839227700325837e-01,8.976668428460192217e+01
4.683702567890282609e+00,8.409789230088238199e-01,2.311087410392956620e+00,-9.496725242995118083e-03,3.478045221079002491e-01,9.375189740005021033e-01,9.108314171045520879e+01
4.700777341914571750e+00,8.190024605959627113e-01,2.427932971711522114e+00,-9.841379786231150423e-03,4.955871545763821939e-01,8.685024579486164686e-01,9.239959913630849542e+01
4.709565419993094970e+00,7.988262972408013418e-01,2.560593013548547070e+00,-9.900305849099063499e-03,6.647393640277203808e-01,7.470097468280557651e-01,9.371605656216178204e+01
4.710000857365007398e+00,7.818427691130744872e-01,2.706250548709609571e+00,-9.406264080283461421e-03,8.289326868790739544e-01,5.592692757692764305e-01,9.503251398801506866e+01
4.701999340086742585e+00,7.694549680219709975e-01,2.862130241322516255e+00,-8.230481066638369730e-03,9.473516417320313465e-01,3.200892470687459745e-01,9.634897141386835528e+01
4.685469420241442862e+00,7.629521646812432722e-01,3.025492188319857778e+00,-6.600203891798260905e-03,9.971090448932613537e-01,7.569669676171229822e-02,9.766542883972164191e+01
4.660322688631716836e+00,7.633847741678180254e-01,3.193625814472830893e+00,-4.920689885556051892e-03,9.911743076300499888e-01,-1.324736906149344695e-01,9.898188626557492853e+01
4.626460593468522120e+00,7.716969418751081777e-01,3.363838510950253990e+00,-3.453354628100461891e-03,9.564624342136022195e-01,-2.918350326468761025e-01,1.002983436914282152e+02
4.583762313077910378e+00,7.888588893981549610e-01,3.533444331437447961e+00,-2.265299693223437986e-03,9.125983986904221412e-01,-4.088508666066112962e-01,1.016148011172815018e+02
4.532084536370739158e+00,8.158701802240575507e-01,3.699755384831894922e+00,-1.327711409150860410e-03,8.691827302146599710e-01,-4.944892503169341924e-01,1.029312585431347884e+02
4.487797453463031161e+00,8.433849063697941295e-01,3.816659156193937807e+00,-5.885006432420416015e-04,8.297915776449050762e-01,-5.580731057277106277e-01,1.038901710345291605e+02
4.417732974193619988e+00,8.928349571370570725e-01,3.968935263207261865e+00,0.000000000000000000e+00,7.952565528098449743e-01,-6.062730533456045512e-01,1.052066284603824471e+02
4.338218139284132135e+00,9.550344336249200206e-01,4.110393681849910053e+00,-4.035058424030640162e-02,6.057098217322965938e-01,-7.946618414196665592e-01,1.065230858862357337e+02
4.249354440492351337e+00,1.030372111626665532e+00,4.238650105706979865e+00,8.466130617035071110e-06,6.062249577557686786e-01,-7.952932166957926707e-01,1.078395433120890203e+02
4.151692900711018375e+00,1.117263187264563085e+00,4.352538047303193380e+00,-4.517739186027349557e-03,5.732229877542889263e-01,-8.193869637373377701e-01,1.091560007379423070e+02
4.045683532136873595e+00,1.212407283611573350e+00,4.452183857174365933e+00,-9.148051780568598398e-03,5.383990862594090210e-01,-8.426403367176612536e-01,1.104724581637955936e+02
4.014282104534645512e+00,1.239960781004475709e+00,4.475922531227571888e+00,-1.386064718436238671e-02,5.018438145349408686e-01,-8.648471935970253321e-01,1.108348465250671495e+02
3.892287388459421127e+00,1.342584177234584564e+00,4.549046687373774489e+00,-1.863082990296669600e-02,4.636831907322688795e-01,-8.858051652646133922e-01,1.121513039509204361e+02
3.762391855707071020e+00,1.444861308582066295e+00,4.609035465868713821e+00,-2.343153026359448554e-02,4.240781926017354042e-01,-9.053224011086612455e-01,1.134677613767737228e+02
3.624666964028048888e+00,1.543042198228139483e+00,4.656315018398615280e+00,-2.823396551757007683e-02,3.832224912589103361e-01,-9.232244393344811728e-01,1.147842188026270094e+02
3.479630078320575581e+00,1.633925267756686672e+00,4.691300309187127482e+00,-3.300843495706635294e-02,3.413383864793613776e-01,-9.393607130050475318e-01,1.161006762284802960e+02
3.328745149530900171e+00,1.715405113381755164e+00,4.714425984929539126e+00,-3.772520247889252915e-02,2.986710878903400257e-01,-9.536101878421431310e-01,1.174171336543335826e+02
3.173939705168606462e+00,1.785897923003222143e+00,4.726118227494461088e+00,-4.235540801471457395e-02,2.554816601259671249e-01,-9.658856768537293913e-01,1.187335910801868692e+02
3.017118638217572091e+00,1.843772597163330973e+00,4.726766579499823706e+00,-4.687194389767890268e-02,2.120390953221531205e-01,-9.761364878592622141e-01,1.200500485060401559e+02
2.871939192432563903e+00,1.884084955070426171e+00,4.717479518862146115e+00,-5.125023477510963488e-02,1.686120682806682980e-01,-9.843492184512625531e-01,1.212675265092990315e+02
2.716618671051460598e+00,1.911709333395913646e+00,4.697055979625102573e+00,-5.546886984055349884e-02,1.254609526200480274e-01,-9.905466944300413967e-01,1.225839839351523182e+02
2.564810444786593369e+00,1.921608545072544638e+00,4.666527406882266860e+00,-5.951005222073049022e-02,8.283062785309164289e-02,-9.947852234397878135e-01,1.239004413610056048e+02
2.418196083797007567e+00,1.912814596541102086e+00,4.625999469446747447e+00,-6.335984955395689011e-02,4.094449866726120740e-02,-9.971504788613334558e-01,1.252168987868588914e+02
2.331692818740849216e+00,1.896218424560796922e+00,4.594744602104833930e+00,-6.700824901989284321e-02,0.000000000000000000e+00,-9.977524214770355782e-01,1.260290939672344734e+02
2.198861354352470432e+00,1.852521069856102987e+00,4.533644916714563600e+00,-3.325810001422323942e-02,0.000000000000000000e+00,-9.994467963745964356e-01,1.273455513930877601e+02
2.074509617784391580e+00,1.793455887944426452e+00,4.461673146635336096e+00,5.300273656876602468e-04,0.000000000000000000e+00,-9.999998595354860909e-01,1.286620088189410467e+02
1.959636912316564672e+00,1.720901579964800865e+00,4.378526049385672358e+00,3.142002937643279675e-02,1.086886248699497071e-01,-9.935791687519738291e-01,1.299784662447943333e+02
1.888265278478852283e+00,1.663898115150596491e+00,4.314311817249818937e+00,6.272313656334800591e-02,2.188556523625597994e-01,-9.737391907326180540e-01,1.308750704533139526e+02
1.793953715999296872e+00,1.571563765656969425e+00,4.209036777339751900e+00,9.317883687629434364e-02,3.260658796460808029e-01,-9.407437198775278064e-01,1.321915278791672392e+02
1.710578403379205747e+00,1.473316872236638542e+00,4.092842567806756371e+00,1.216260801085629617e-01,4.262311494545779622e-01,-8.964006380363941373e-01,1.335079853050205259e+02
1.638440530769095238e+00,1.372000668474602447e+00,3.966107681741835478e+00,2.541642257495620449e-01,4.308050988646147661e-01,-8.659142643133760364e-01,1.348244427308738125e+02
1.577416036288655565e+00,1.270341288386575229e+00,3.829806013904710760e+00,4.072262164717574962e-01,4.257350467341654565e-01,-8.080324737288442360e-01,1.361409001567270991e+02
1.527194045764833863e+00,1.171012024981280319e+00,3.685195391635607276e+00,5.703765393097490755e-01,4.056665083093906055e-01,-7.142165550035237676e-01,1.374573575825803857e+02
1.487515209102366454e+00,1.076695446655697941e+00,3.533507015651087713e+00,7.240675181117420811e-01,3.675062967972820283e-01,-5.836654444370080741e-01,1.387738150084336723e+02
1.458170944391582236e+00,9.900917270705380524e-01,3.375949405521650348e+00,8.472602576152515885e-01,3.138664589846844044e-01,-4.285299310318394506e-01,1.400902724342869590e+02
1.456336832277902005e+00,9.832047734950803974e-01,3.361766393014104626e+00,9.293158501244517256e-01,2.526376387107632793e-01,-2.693441557081156512e-01,1.402058085967810257e+02
1.443591160829955200e+00,9.143158494891998611e-01,3.196930898780683705e+00,9.735065583894988439e-01,1.923090922017774151e-01,-1.237020364794436667e-01,1.415222660226343123e+02
1.440013281736433948e+00,8.586897124158437977e-01,3.029359494549490162e+00,9.904057951058569120e-01,1.381895836187932158e-01,0.000000000000000000e+00,1.428387234484875989e+02
1.444626627928875084e+00,8.189541412732611603e-01,2.860842228501931928e+00,9.861904766503115649e-01,1.384541631583740273e-01,9.087787667163801930e-02,1.441551808743408856e+02
1.456493726192909843e+00,7.964196368282612237e-01,2.693437454323834412e+00,9.704966773544698722e-01,1.372716953701567932e-01,1.982238151538223969e-01,1.454716383001941722e+02
1.475009026979185345e+00,7.897690411097483265e-01,2.529814475394815965e+00,9.372382649364562335e-01,1.337926375447988925e-01,3.219999454622733404e-01,1.467880957260474588e+02
1.500195321146775118e+00,7.964850705749701998e-01,2.373055473463972387e+00,8.795375535389855504e-01,1.270231598745265311e-01,4.585616739001927566e-01,1.481045531519007454e+02
1.531667140914760195e+00,8.140573597443148124e-01,2.226015551168214479e+00,7.922310806754615520e-01,1.161598113302516749e-01,5.990632796654379311e-01,1.494210105777540321e+02
1.567593330947557595e+00,8.398236703355485000e-01,2.090953384092453682e+00,6.757149513047172595e-01,1.011329488299828189e-01,7.301927356829948090e-01,1.507374680036073187e+02
1.605415388708025137e+00,8.710656564601293450e-01,1.969852245271924263e+00,5.382538552238631535e-01,8.297129370074733667e-02,8.386885904543310843e-01,1.520539254294606053e+02
1.642564221937139024e+00,9.050985042848502804e-01,1.864740146786398212e+00,3.935111791408068549e-01,6.351157978788697644e-02,9.171233456433538489e-01,1.533703828553138919e+02
1.671371725369239947e+00,9.341531666151030588e-01,1.790866889958758312e+00,2.546671961381555827e-01,4.459754571034715842e-02,9.659998333994389563e-01,1.544864942164842887e+02
1.699758408563696088e+00,9.662111275108278274e-01,1.723703732753322004e+00,1.301124276359510168e-01,2.745433897750501964e-02,9.911190722844495093e-01,1.558029516423375753e+02
1.719757329630578591e+00,9.926673813375919142e-01,1.678478225435191540e+00,2.298209388609315576e-02,1.258674205879925685e-02,9.996566396943281640e-01,1.571194090681908619e+02
1.727921088746072087e+00,1.008358283057176896e+00,1.656923772466373679e+00,-6.709871396896584239e-02,0.000000000000000000e+00,9.977463418042237242e-01,1.584358664940441486e+02
1.721937074689817493e+00,1.009062589641175123e+00,1.660329249068571267e+00,9.303527144256833470e-01,-2.383318412293171547e-03,3.666580785338139914e-01,1.597523239198974352e+02
1.702801944297618109e+00,9.950579138491786324e-01,1.688773305945341807e+00,9.409487063043028288e-01,3.133491412027630818e-02,3.370959140383249508e-01,1.610687813457507218e+02
1.673813640302439509e+00,9.702261963721812155e-01,1.740780547694262159e+00,9.497033747060930065e-01,6.568056452258524969e-02,3.061855050714400450e-01,1.623852387716040084e+02
1.661453738948862613e+00,9.592309576452765496e-01,1.766192330803768362e+00,9.564487007990828404e-01,1.004377688190789542e-01,2.740768821597175942e-01,1.628412029506565375e+02
1.621365410969459742e+00,9.232464746125552679e-01,1.859330137095722701e+00,9.610497182762915980e-01,1.353712880954301145e-01,2.409523881609074991e-01,1.641576603765098241e+02
1.579498628594766307e+00,8.859140965679470625e-01,1.970623877366076027e+00,9.634117726749208410e-01,1.702337236419682320e-01,2.070223070259739895e-01,1.654741178023631107e+02
1.539137730741774179e+00,8.507018656552370883e-01,2.097777488241489241e+00,9.634858554891337912e-01,2.047738810389793662e-01,1.725185900609144396e-01,1.667905752282163974e+02
1.503593352838977548e+00,8.210642296448514843e-01,2.238545730369528641e+00,9.612714387993919196e-01,2.387456568535060164e-01,1.376870810284503144e-01,1.681070326540696840e+02
1.476213086378663109e+00,8.004529804788281799e-01,2.390726993389651334e+00,9.568164939200808350e-01,2.719167305868926965e-01,1.027788333725331293e-01,1.694234900799229706e+02
1.460391676843242559e+00,7.920968659071597751e-01,2.552103749624328621e+00,9.502146925487184870e-01,3.040763550014540795e-01,6.804122569129748832e-02,1.707399475057762572e+02
1.459575709457638704e+00,7.975946322333115068e-01,2.720332236629872558e+00,9.416001040997536986e-01,3.350416501093114174e-01,3.370959286854338655e-02,1.720564049316295439e+02
1.476431954776171951e+00,8.158648532167876999e-01,2.893035885101287175e+00,9.311399612909904144e-01,3.646619975909372591e-01,0.000000000000000000e+00,1.733728623574828305e+02
1.506950719658901816e+00,8.409803524743358905e-01,3.044047670337703071e+00,9.298530426489020062e-01,3.641577830022642015e-01,-5.255880664032686750e-02,1.745091039061159393e+02
1.560454636026803010e+00,8.798762645160420615e-01,3.219096965007717692e+00,9.254450308019963600e-01,3.624312336864278783e-01,-1.104314077263625210e-01,1.758255613319692259e+02
1.631576227176472882e+00,9.280352399747878733e-01,3.391930105570434506e+00,9.169716188337199148e-01,3.591125303788128553e-01,-1.737850418718291934e-01,1.771420187578225125e+02
1.719752186873158672e+00,9.847651536785159143e-01,3.560211271710880254e+00,9.033389241671069270e-01,3.537732766045185162e-01,-2.425350631251418643e-01,1.784584761836757991e+02
1.824137615545821545e+00,1.048768257362591383e+00,3.722140429224109148e+00,8.833576674875250889e-01,3.459477172421779878e-01,-3.162268303384854207e-01,1.797749336095290857e+02
1.943417050617942454e+00,1.118037091810779815e+00,3.876882852809660829e+00,8.558537872815058511e-01,3.351760589459431561e-01,-3.939178903088415562e-01,1.810913910353823724e+02
2.076078280143891952e+00,1.190309362355577827e+00,4.024054438614673934e+00,8.198434775437324351e-01,3.210730204317148728e-01,-4.740978674069891152e-01,1.824078484612356590e+02
2.220638436334133381e+00,1.263341734693542495e+00,4.163246821512917251e+00,7.747576354543719290e-01,3.034157327993870501e-01,-5.546976648544336141e-01,1.837243058870889456e+02
2.375639292885461273e+00,1.334902437221138216e+00,4.294026066463659141e+00,7.206658048790606230e-01,2.822314418370914235e-01,-6.332347202393218133e-01,1.850407633129422322e+02
2.485224361772841561e+00,1.380414792089181830e+00,4.375499936586003003e+00,6.584196395867540907e-01,2.578536912578123785e-01,-7.071032824921472670e-01,1.859202568972444283e+02
2.657040564705406727e+00,1.443215572326868257e+00,4.488175326030605206e+00,5.896383802354098203e-01,2.309166334760685002e-01,-7.739535444310861045e-01,1.872367143230977149e+02
2.835094230892497791e+00,1.499122578850672793e+00,4.591181075305491355e+00,5.165100077921462862e-01,2.022771539162508125e-01,-8.320464920027597078e-01,1.885531717489510015e+02
3.017126082389518960e+00,1.547663390070786571e+00,4.684378021902557698e+00,4.414608314745113726e-01,1.728854709703262493e-01,-8.804674600467647938e-01,1.898696291748042881e+02
3.200600259034807493e+00,1.588949423648876591e+00,4.767732484388321978e+00,3.668024634650507987e-01,1.436468807712332763e-01,-9.191417335975258229e-01,1.911860866006575748e+02
3.382986231299667246e+00,1.623084410128766031e+00,4.841179240386790816e+00,2.944615288164403322e-01,1.153159042256227118e-01,-9.486804784961645476e-01,1.925025440265108614e+02
3.561750567586140725e+00,1.650164719763589805e+00,4.904621317567938732e+00,2.258444097181118992e-01,8.844331786383564931e-02,-9.701402383801602802e-01,1.938190014523641480e+02
3.734348694240797961e+00,1.670279716584883500e+00,4.957929682891971446e+00,1.618286752855228328e-01,6.337279849637861284e-02,-9.847818886769141855e-01,1.951354588782174346e+02
3.898216621801485537e+00,1.683512140981313632e+00,5.000942829113212085e+00,1.028376735429788191e-01,4.027013642818667166e-02,-9.938826535423197495e-01,1.964519163040707213e+02
4.050762610893142046e+00,1.689938522311601687e+00,5.033466257218609741e+00,4.895023414758749997e-02,1.916619879096830709e-02,-9.986173097842845348e-01,1.977683737299240079e+02
4.189358751004413683e+00,1.689629623338332554e+00,5.055271853142550675e+00,1.064529351364108455e-05,0.000000000000000000e+00,-9.999999999433388798e-01,1.990848311557772945e+02
4.311332425106082056e+00,1.682650918537504481e+00,5.066097156759967746e+00,-3.475005958278333616e-03,0.000000000000000000e+00,-9.999939621485671726e-01,2.004012885816305811e+02
4.413957632714747170e+00,1.669063108616192670e+00,5.065644520814511331e+00,-6.960742051452663108e-03,0.000000000000000000e+00,-9.999757737415908565e-01,2.017177460074838677e+02
4.419862239249151337e+00,1.667789405224628929e+00,5.065029110272601720e+00,-1.044643592452682360e-02,0.000000000000000000e+00,-9.999454344995404309e-01,2.018075984926670401e+02
4.488730101084891899e+00,1.644087053518906494e+00,5.047256563644859639e+00,-1.393196051600319348e-02,0.000000000000000000e+00,-9.999029455283050538e-01,2.031240559185203267e+02
4.529923594810028042e+00,1.616496215677671433e+00,5.019856527124497703e+00,-1.741718878752641919e-02,0.000000000000000000e+00,-9.998483092623299262e-01,2.043471872216178156e+02
4.549341287432593361e+00,1.582481368557063117e+00,4.979471300960238267e+00,0.000000000000000000e+00,2.371239420780988857e-02,-9.997188216498343882e-01,2.056636446474711022e+02
4.544977172863321258e+00,1.546728554977686798e+00,4.929972209434442476e+00,5.063877768802171192e-02,2.321189161208673038e-02,-9.984472556334921256e-01,2.069801020733243888e+02
4.518364777064567406e+00,1.512037842216351402e+00,4.873463660086969185e+00,1.044676619020460662e-01,2.261286631387023072e-02,-9.942711732187506923e-01,2.082965594991776754e+02
4.470982966621164678e+00,1.481203390084768756e+00,4.812027598146452867e+00,1.612816720962442496e-01,2.190476306534033107e-02,-9.866652946166145632e-01,2.096130169250309621e+02
4.404260725140438204e+00,1.457022780417105423e+00,4.747730178273480206e+00,2.207261147394915246e-01,2.107850480899847029e-02,-9.751080344797831145e-01,2.109294743508842487e+02
4.354615464625483767e+00,1.448181901157238327e+00,4.709466548020110999e+00,2.822792735484769833e-01,2.012759277361732616e-02,-9.591211037893409008e-01,2.117008919502114850e+02
4.252993511067618471e+00,1.444447190960467475e+00,4.644820923674156887e+00,3.452485734834414566e-01,1.904929070143962164e-02,-9.383179349407219094e-01,2.130173493760647716e+02
4.135635711262621861e+00,1.454441236260767045e+00,4.582528622614315594e+00,4.087859814701256256e-01,1.784571754172370808e-02,-9.124557806923725423e-01,2.143338068019180582e+02
4.065894341896624908e+00,1.467869301333505572e+00,4.551554542556324634e+00,4.719260946215648733e-01,1.652462089104437051e-02,-8.814832375715633273e-01,2.150306906923404142e+02
3.921058429428563752e+00,1.509342009411801966e+00,4.497453978926224671e+00,5.336459468119639782e-01,1.509960270356448461e-02,-8.455731816048549510e-01,2.163471481181937008e+02
3.764750006216471157e+00,1.566868297316271308e+00,4.447537936066709108e+00,5.929399408563248430e-01,1.358964243215702791e-02,-8.051320066646613371e-01,2.176636055440469875e+02
3.598871807247946641e+00,1.639872802372390748e+00,4.401197295722645286e+00,6.488983799556321541e-01,1.201790609981780861e-02,-7.607801669496465635e-01,2.189800629699002741e+02
3.425292164424053709e+00,1.727818367440783875e+00,4.357834397271932225e+00,7.007759679716423218e-01,1.041000189543406923e-02,-7.133054567111798416e-01,2.202965203957535607e+02
3.245851282031687823e+00,1.830204503043636244e+00,4.316861122470037948e+00,7.480385754994071101e-01,8.791980319258827295e-03,-6.635970092208701709e-01,2.216129778216068473e+02
3.062367411956512075e+00,1.946565929150096297e+00,4.277697010781741582e+00,7.903819654369945713e-01,7.188425986041628579e-03,-6.125721796195094937e-01,2.229294352474601340e+02
2.876642949096998692e+00,2.076471192481696093e+00,4.239767399256317404e+00,8.277229296632155897e-01,5.620934611591343714e-03,-5.611088635940761904e-01,2.242458926733134206e+02
2.690470467153011302e+00,2.219521355313469169e+00,4.202501580986114149e+00,8.601689171356972086e-01,4.107143071356714539e-03,-5.099927110943777153e-01,2.255623500991667072e+02
2.505638714744684581e+00,2.375348751852475626e+00,4.165330976252612061e+00,8.879751253679746270e-01,2.660337211001475004e-03,-4.598837889441781401e-01,2.268788075250199938e+02
2.323938591655799968e+00,2.543615808375532694e+00,4.127687310558768807e+00,9.114979975103159049e-01,1.289549532768210702e-03,-4.113024891690866269e-01,2.281952649508732804e+02
2.262788851556154057e+00,2.605723109684546124e+00,4.114434539800013724e+00,9.311520231452796725e-01,0.000000000000000000e+00,-3.646311969544738796e-01,2.286492567696091953e+02
2.090796674366086183e+00,2.797203010046707128e+00,4.075163649453405590e+00,-1.403464077947989275e-01,-4.257102307760083360e-01,-8.939092153187222500e-01,2.299657141954624819e+02
1.925076560436109085e+00,2.999524467982946252e+00,4.034813824816140482e+00,5.515264581895839013e-01,-5.534118804705877581e-01,-6.241424969274734780e-01,2.312821716213157686e+02
1.766330557784642430e+00,3.211607486332541228e+00,3.992961473056230393e+00,9.302592260359704435e-01,-3.669029467487537888e-01,-6.483715412145263470e-06,2.325986290471690552e+02
1.615276669824160516e+00,3.432399129444710262e+00,3.949178186428207393e+00,8.178698973960368823e-01,-6.500779894983967078e-02,-5.717191767022454796e-01,2.339150864730223418e+02
1.472651334588479077e+00,3.660870022994342499e+00,3.903029369386526337e+00,3.532833449224508371e-01,2.648814910786053689e-01,-8.972339014350602104e-01,2.352315438988756284e+02
1.339211942138977207e+00,3.896010914276884396e+00,3.854072845883269149e+00,3.803347970722281146e-01,2.315212417451073534e-01,-8.954012266893711658e-01,2.365480013247289151e+02
1.215739398630854007e+00,4.136829281635850286e+00,3.801857442380104146e+00,4.082977075589414584e-01,1.956190716097275240e-01,-8.916423951476631915e-01,2.378644587505822017e+02
1.103040745604530803e+00,4.382345981783072553e+00,3.745921542029658102e+00,4.369975362087307746e-01,1.571330385000159757e-01,-8.856310527297760471e-01,2.391809161764354883e+02
1.001951843177975698e+00,4.631591923834220026e+00,3.685791605391837145e+00,4.662019860358270762e-01,1.160809042874283020e-01,-8.770296071832828222e-01,2.404973736022887749e+02
9.133401259508949765e-01,4.883604758916581190e+00,3.620980652944573830e+00,4.956177284456139698e-01,7.255591228801562542e-02,-8.655048855104536809e-01,2.418138310281420615e+02
8.381074405966119079e-01,5.137425574202014289e+00,3.550986704527553606e+00,5.248915448402409201e-01,2.674126670916604151e-02,-8.507489469931859283e-01,2.431302884539953482e+02
7.771928306851346724e-01,5.392095681519897710e+00,3.475499019089097086e+00,5.536174632290459252e-01,-2.107913912703832451e-02,-8.325042788487629908e-01,2.444467458798486348e+02
7.311053870982242575e-01,5.646654575326570225e+00,3.394607097864816847e+00,5.813510094604786849e-01,-7.051657079534982830e-02,-8.105913995611765399e-01,2.457632033057019214e+02
6.994559938672619825e-01,5.900141551890015101e+00,3.308595273409631776e+00,6.076307242215887028e-01,-1.210825288085619206e-01,-7.849356178689250729e-01,2.470796607315552080e+02
6.814262547674295734e-01,6.151596893579132974e+00,3.217733621788977594e+00,6.320056840567537249e-01,-1.722047666726107540e-01,-7.555887331446826671e-01,2.483961181574084947e+02
6.762359541429605603e-01,6.400094170525420623e+00,3.122289947544555133e+00,6.540661916630974293e-01,-2.232542444954875582e-01,-7.227412809837843177e-01,2.497125755832617813e+02
6.831408730673425023e-01,6.644771910337353482e+00,3.022543911971494524e+00,6.734735428301242832e-01,-2.735808075433673880e-01,-6.867218715402618745e-01,2.510290330091150679e+02
7.014307027439514730e-01,6.884795719901306121e+00,2.918774659221327283e+00,6.899843434820364108e-01,-3.225532935333114137e-01,-6.479822363155310905e-01,2.523454904349683545e+02
7.304267614034724021e-01,7.119320508016448557e+00,2.811248440752327937e+00,7.034655418795023873e-01,-3.695985136944914262e-01,-6.070693288768597151e-01,2.536619478608216411e+02
7.694797236419981257e-01,7.347487572845916581e+00,2.700219468549825308e+00,7.138980590535048965e-01,-4.142336180441384408e-01,-5.645884084549569470e-01,2.549784052866749278e+02
8.179674266240519742e-01,7.568421659311837857e+00,2.585930729765919978e+00,7.213691391357011096e-01,-4.560877706809468579e-01,-5.211626526698758255e-01,2.562948627125282428e+02
8.752927458367986135e-01,7.781227976495840082e+00,2.468614765388820409e+00,7.260556007127129119e-01,-4.949113492479191856e-01,-4.773950366932040446e-01,2.576113201383815294e+02
9.408815332444078194e-01,7.984989165024066082e+00,2.348494415436454652e+00,7.282014698913191753e-01,-5.305732922925850970e-01,-4.338370670585088851e-01,2.589277775642348161e+02
1.014180610832921658e+00,8.178762204298966054e+00,2.225783533062430486e+00,7.280937802347732246e-01,-5.630490655802530275e-01,-3.909670023577969666e-01,2.602442349900881027e+02
1.094655812653916094e+00,8.361575249287847456e+00,2.100687669862581597e+00,7.260397718254502086e-01,-5.924026432368445505e-01,-3.491781178906377958e-01,2.615606924159413893e+02
1.181790068563270735e+00,8.532424386391138427e+00,1.973404734579258468e+00,7.223476774909688425e-01,-6.187659178276696537e-01,-3.087759248359315256e-01,2.628771498417946759e+02
1.268335326924058704e+00,8.678905676850115825e+00,1.853456497898141375e+00,7.173121451944598492e-01,-6.423183379552118710e-01,-2.699822940175455321e-01,2.640986331849006774e+02
1.367268117737991728e+00,8.822741291790553220e+00,1.722382012577069910e+00,7.112043967090111440e-01,-6.632686733194039785e-01,-2.329441415766644874e-01,2.654150906107539640e+02
1.471461485572757022e+00,8.951757716981862956e+00,1.590111393864741096e+00,7.051789669435449825e-01,-6.955142528259233847e-01,-1.377771704471834335e-01,2.667315480366072507e+02
1.580620387264082272e+00,9.065809053719652510e+00,1.458086491290874642e+00,6.909993948150462417e-01,-7.219863999467684978e-01,-3.543267781504392394e-02,2.680480054624605373e+02
1.694514903941863659e+00,9.165051664031238943e+00,1.328172097837507781e+00,6.679930486795491174e-01,-7.407613666875482172e-01,7.111880580407241303e-02,2.693644628883138239e+02
1.812917426361425388e+00,9.249613350809806178e+00,1.202239459749383954e+00,6.363732481134537489e-01,-7.505366193308438127e-01,1.781119651482195032e-01,2.706809203141671105e+02
1.935608668645768748e+00,9.319584867640219983e+00,1.082172428055080404e+00,5.973078778391587296e-01,-7.509511066818853608e-01,2.815949829889237144e-01,2.719973777400203971e+02
2.031300114626914954e+00,9.361478209148126339e+00,9.972932532070775125e-01,5.527130022385920993e-01,-7.426490640690708300e-01,3.781278947574951421e-01,2.729913682993302473e+02
2.161870011992413243e+00,9.402457509019498616e+00,8.942540214847688462e-01,5.048512704463933298e-01,-7.270626860542610537e-01,4.653010265153361136e-01,2.743078257251835339e+02
2.295822049314624635e+00,9.428725025634374646e+00,8.021472404244378573e-01,4.249394634100700507e-01,-6.063192909023201738e-01,6.721632018464485103e-01,2.756242831510368205e+02
2.432113122938849514e+00,9.439936522396148888e+00,7.220205876621590413e-01,2.964032981094895103e-01,-4.150257109532208277e-01,8.601736709046554630e-01,2.769407405768901071e+02
2.569414199026421208e+00,9.435621441161178069e+00,6.546452734609218282e-01,1.416464897330164119e-01,-1.870178260374537327e-01,9.720908417892533127e-01,2.782571980027433938e+02
2.706483786526418633e+00,9.415826244259077882e+00,6.008253566979431248e-01,-0.000000000000000000e+00,2.016684970649313888e-02,9.997966284064554454e-01,2.795736554285966804e+02
2.842255592443556189e+00,9.381672673908312277e+00,5.613923075974937005e-01,-4.405748323379862080e-02,4.891220338895709702e-02,9.978309148000681361e-01,2.808901128544499670e+02
2.975754418513703037e+00,9.334801441734875027e+00,5.372156861526197202e-01,-9.294215161681321224e-02,8.074135310200926396e-02,9.923923570604995525e-01,2.822065702803032536e+02
3.106007761639811626e+00,9.276818303780137498e+00,5.292139426094071286e-01,-1.468992552954708208e-01,1.157917348167841892e-01,9.823506924422437114e-01,2.835230277061565403e+02
3.112350086226286283e+00,9.273587772839656296e+00,5.293737460351203294e-01,-2.059546513336154849e-01,1.540530799964089370e-01,9.663593173026628902e-01,2.835884401839817883e+02
3.236858796313158315e+00,9.202360644530003242e+00,5.443356061781716715e-01,-2.697872601596933428e-01,1.952851806217740238e-01,9.429096099229485883e-01,2.849048976098350749e+02
3.356094304928199712e+00,9.123235108017652806e+00,5.775351064917901844e-01,-3.375898988920993937e-01,2.389296595188219463e-01,9.104645396544787106e-01,2.862213550356883616e+02
3.469082545608311641e+00,9.037751229268772946e+00,6.300718258028025209e-01,-4.079584437506157402e-01,2.840422667700002179e-01,8.676922835088114461e-01,2.875378124615416482e+02
3.575126160511974405e+00,8.947400138987278595e+00,7.021566514545973803e-01,-4.788727485454328248e-01,3.292869047126320003e-01,8.137880713584567660e-01,2.888542698873949348e+02
3.674106156301723658e+00,8.853599656206236901e+00,7.921631627209900772e-01,-5.478356078301684917e-01,3.730332729260097957e-01,7.488139449045129181e-01,2.901707273132482214e+02
3.766225569842592602e+00,8.757756957593993974e+00,8.975716953235716167e-01,-6.121936858025797124e-01,4.135711541841496364e-01,6.739271410844370758e-01,2.914871847391015081e+02
3.851700853491855092e+00,8.661292057091797503e+00,1.015911475710530087e+00,-6.695768475004051368e-01,4.493970885153487638e-01,5.913620736277791501e-01,2.928036421649547947e+02
3.930735747092266585e+00,8.565621663673157471e+00,1.144753169404969295e+00,-7.183091093020983475e-01,4.794765540868984321e-01,5.041173053710609198e-01,2.941200995908080813e+02
4.003521930962131492e+00,8.472163824263999388e+00,1.281701096032473064e+00,-7.576370895519806137e-01,5.033828591951108322e-01,4.154416175634784714e-01,2.954365570166613679e+02
4.070239668589186621e+00,8.382342566974966047e+00,1.424385552195742699e+00,-7.877097378906450231e-01,5.212733295047503601e-01,3.283100436771365094e-01,2.967530144425146545e+02
4.114484820357416694e+00,8.320662764258987210e+00,1.530704219501216157e+00,-8.093617495431117970e-01,5.337404727533320292e-01,2.450605356265324331e-01,2.977103534615887384e+02
4.169571000022195939e+00,8.242130346819619646e+00,1.678354534480217319e+00,-8.238185709268746049e-01,5.416164610922707956e-01,1.672560051833317518e-01,2.990268108874420250e+02
4.218987228480284735e+00,8.171251975674193702e+00,1.825259868359297544e+00,-8.324290766558659627e-01,5.457994550465408157e-01,9.573289512367950949e-02,3.003432683132953116e+02
4.262872080403563579e+00,8.109521006264834853e+00,1.969082428503296622e+00,-8.364793266059467047e-01,5.471349593869024863e-01,3.075178657500335019e-02,3.016597257391485982e+02
4.301355569871291529e+00,8.058459447157177991e+00,2.107474543299387992e+00,-8.370921430446420786e-01,5.463537670675767677e-01,-2.782634118953599203e-02,3.029761831650018848e+02
4.334559763439798985e+00,8.019622916802628509e+00,2.238071138879501820e+00,-8.351919860094663139e-01,5.440521584196161831e-01,-8.038404956532353707e-02,3.042926405908551715e+02
4.362648316304208684e+00,7.993860579291801827e+00,2.358207574551724139e+00,-8.822976167667623271e-01,4.638905570275208556e-01,-7.972745166119339644e-02,3.056090980167084581e+02
4.385870014744018164e+00,7.980572409645956711e+00,2.464636518248349173e+00,-9.231211665855439952e-01,3.764488888942816303e-01,-7.831695762735554900e-02,3.069255554425617447e+02
4.404501685114128762e+00,7.978451883973862735e+00,2.553792125748000519e+00,-9.558835182805913711e-01,2.837096432543147473e-01,-7.612842967005062356e-02,3.082420128684150313e+02
4.418797324200841814e+00,7.986226830360467766e+00,2.622053199203622231e+00,-9.793941327143284026e-01,1.882244473576624444e-01,-7.320307521990508659e-02,3.095584702942683180e+02
4.428989121034667242e+00,8.002655466548876717e+00,2.665731582761234009e+00,-9.932481266354511451e-01,9.277811419399570325e-02,-6.964467288869051476e-02,3.108749277201216046e+02
4.434831526901852783e+00,8.024829208976330008e+00,2.680035929580029563e+00,-9.978458252684040408e-01,-0.000000000000000000e+00,-6.560265996449830828e-02,3.120970062957032383e+02
4.437390739684360597e+00,8.055065882157407486e+00,2.664993654210790375e+00,-9.796754852480775710e-01,0.000000000000000000e+00,2.005889917317091597e-01,3.134134637215565249e+02
4.436325432337462793e+00,8.090636517846654385e+00,2.620218032690031507e+00,-5.932145613644308479e-01,8.050443988906488268e-01,0.000000000000000000e+00,3.147299211474098115e+02
4.431707665442062627e+00,8.130564449886396261e+00,2.547814324567987398e+00,-5.952743839939090842e-01,8.019759352015032317e-01,4.982978143988005953e-02,3.160463785732630981e+02
4.423592003209469325e+00,8.173886664338004593e+00,2.449799253249326902e+00,-5.958201991471716585e-01,7.962242661694423074e-01,1.050009916674984611e-01,3.173628359991163848e+02
4.411956848123174346e+00,8.219557562168079201e+00,2.328478995126634032e+00,-5.942805428705216775e-01,7.869775815595008162e-01,1.658219602111775937e-01,3.186792934249696714e+02
4.396644741273126655e+00,8.266352943687619970e+00,2.186828096286106415e+00,-5.899530205547621753e-01,7.732704095740859929e-01,2.323968743667559622e-01,3.199957508508229580e+02
4.388872231417334291e+00,8.285300158328640308e+00,2.122452211693065749e+00,-5.820159281133766571e-01,7.540142404163377998e-01,3.044995643210313130e-01,3.205289230109158325e+02
4.365630489283025994e+00,8.331132932617675735e+00,1.948528937074771594e+00,-5.695747810839056902e-01,7.280777972941453458e-01,3.814279615347124786e-01,3.218453804367691191e+02
4.338113394284533797e+00,8.374903768371211754e+00,1.762162685579958810e+00,-5.517585338977236686e-01,6.944332580388776766e-01,4.618711621226682662e-01,3.231618378626224057e+02
4.306025708222636972e+00,8.415294147349412057e+00,1.566491062871850692e+00,-5.278704243210482483e-01,6.523684562352649596e-01,5.438457616239494863e-01,3.244782952884756924e+02
4.269049216695610660e+00,8.450976554820334385e+00,1.364621854889782826e+00,-4.975744836692894135e-01,6.017311008450034748e-01,6.247714105791815076e-01,3.257947527143289790e+02
4.226841631286335499e+00,8.480610346327733140e+00,1.159642986966825662e+00,-4.610657559502961411e-01,5.431289128146636891e-01,7.017331064975794730e-01,3.271112101401822656e+02
4.179035388207323898e+00,8.502837579253112565e+00,9.546324193029953609e-01,-4.191506882638970088e-01,4.779886826570493574e-01,7.719064190558851957e-01,3.284276675660355522e+02
4.125236339259715557e+00,8.516278796390167827e+00,7.526680105043968005e-01,-3.731808654608631537e-01,4.084109091726372820e-01,8.330285534858099528e-01,3.297441249918888388e+02
4.065022330534969974e+00,8.519528748621864267e+00,5.568373807965310007e-01,-3.248433418125815098e-01,3.368439537717516918e-01,8.837493728922518610e-01,3.310605824177421255e+02
3.997941663845514970e+00,8.511152043623354757e+00,3.702478065197337131e-01,-2.758792711702683920e-01,2.656891417100092911e-01,9.237423383801135479e-01,3.323770398435954121e+02
3.923511435409077652e+00,8.489678707308591754e+00,1.960361776143449142e-01,-2.278299165942993809e-01,1.969719126915794316e-01,9.535699212513236711e-01,3.336934972694486987e+02
3.841215745831906059e+00,8.453599644493118959e+00,3.737905000464374766e-02,-1.818799812611087974e-01,1.321627424071647461e-01,9.743986257871446455e-01,3.350099546953019853e+02
3.751474636760496750e+00,8.401760861316004636e+00,-1.025121018728575167e-01,-1.388124784831387681e-01,7.215264202067966925e-02,9.876867378206533044e-01,3.363264121211552720e+02
3.656625647944254265e+00,8.333753411853605186e+00,-2.218028581611463934e-01,-9.904675942420887447e-02,1.733448337143874904e-02,9.949317841610088031e-01,3.376428695470085586e+02
3.567900342579247042e+00,8.256459578093263474e+00,-3.131584487127854199e-01,-6.271791717527906707e-02,-3.227028629987238606e-02,9.975094443098365682e-01,3.388506589338726940e+02
3.472509492985810464e+00,8.155844000302334251e+00,-3.951852877531130126e-01,-2.976371990473455215e-02,-7.688450159312447407e-02,9.965956524048303899e-01,3.401671163597259806e+02
3.381098321233342308e+00,8.038951978013344046e+00,-4.617889054207442445e-01,0.000000000000000000e+00,-1.168706797253571267e-01,9.931471412739065752e-01,3.414835737855792672e+02
3.333092282007736440e+00,7.964800487940915552e+00,-4.914696817923658312e-01,-1.177652196089313680e-01,0.000000000000000000e+00,9.930414659270077049e-01,3.422195153013669824e+02
