4.225712445904780346e+00,2.968029407774385398e+00,4.751158020010025851e+00,-4.253920268467096394e-02,1.541352188790518765e-03,-9.990936094622879793e-01,1.565313216455670231e+00
4.207532134427808934e+00,3.424293020560161160e+00,4.739957186690000768e+00,-8.575115672480565499e-02,3.106688202074097717e-03,-9.963117421815186336e-01,3.130626432911340462e+00
4.190676809364568101e+00,3.878140807989241434e+00,4.728984533895965292e+00,-1.293923367445119765e-01,4.687572017054901855e-03,-9.915823969092935064e-01,4.695939649367010915e+00
4.174916734932175189e+00,4.328326733378643709e+00,4.718362878207476463e+00,-1.732125517581984964e-01,6.274940541774743676e-03,-9.848644764812114483e-01,6.261252865822680924e+00
4.160002041833571695e+00,4.773603802912644412e+00,4.708215835269573546e+00,-2.169509081603828160e-01,7.859342998928556256e-03,-9.761508767480622240e-01,7.826566082278350933e+00
4.145662136852400259e+00,5.212723456563851165e+00,4.698668101226933125e+00,-2.603432798620847199e-01,9.431211529403260921e-03,-9.654700559208141408e-01,9.391879298734021830e+00
4.131605054384039022e+00,5.644434960993047312e+00,4.689845736618428518e+00,-3.031301624700423747e-01,1.098114570696517162e-02,-9.528858898314362946e-01,1.095719251518969273e+01
4.117516748464737475e+00,6.067484804356911177e+00,4.681876453378309044e+00,-3.450643767211609148e-01,1.250019159159842380e-02,-9.384957757647127696e-01,1.252250573164536362e+01
4.103060323724503355e+00,6.480616092960757690e+00,4.674889905597193085e+00,-3.859180935050233185e-01,1.398009620699607394e-02,-9.224271147442983931e-01,1.408781894810103452e+01
4.087875203549648617e+00,6.882567949702142585e+00,4.669017984704821878e+00,-4.254887240257102521e-01,1.541352090762469762e-02,-9.048324536068559354e-01,1.565313216455670542e+01
4.071576233597435035e+00,7.272074914260421075e+00,4.664395119746670204e+00,-4.636033419589984383e-01,1.679420156749854981e-02,-8.858836809187525807e-01,1.721844538101237632e+01
4.053752718657771759e+00,7.647866344997331645e+00,4.661158583437717162e+00,-4.666579247668419805e-01,1.336466691325708354e-02,-8.843369080450064201e-01,1.878375859746804721e+01
4.033967390704576772e+00,8.008665822544212887e+00,4.659448804690232038e+00,-4.697023339911882145e-01,9.933931315754807728e-03,-8.827689587042830688e-01,2.034907181392371811e+01
4.011755305822874540e+00,8.353190555062562694e+00,4.659409688327494692e+00,-4.727363475312273966e-01,6.502236123312854499e-03,-8.811799286458079639e-01,2.191438503037938901e+01
3.986622667536122933e+00,8.680150785176762085e+00,4.661188942711001815e+00,-4.757597453444822877e-01,3.069823040587011786e-03,-8.795699181396854360e-01,2.347969824683505990e+01
3.958045573891062929e+00,8.988249198590620992e+00,4.664938416027025525e+00,-4.787723095264173057e-01,-3.630659564164088874e-04,-8.779390319457562875e-01,2.504501146329073080e+01
3.925468685484657883e+00,9.276180334412964967e+00,4.670814441998191846e+00,-4.817738243888567973e-01,-3.796188705554231612e-03,-8.762873792797923889e-01,2.661032467974640170e+01
3.888303811438847291e+00,9.542629997231772521e+00,4.678978195807144580e+00,-4.847640765371454830e-01,-7.229302943919640317e-03,-8.746150737770493899e-01,2.817563789620207260e+01
3.845928410143025555e+00,9.786274670991629065e+00,4.689596061042871966e+00,-4.877428549459877916e-01,-1.066216639330481476e-02,-8.729222334532089622e-01,2.974095111265774349e+01
3.797684001391719466e+00,1.000578093474560504e+01,4.702840008504989733e+00,-4.907099510339029136e-01,-1.409453684568258945e-02,-8.712089806627397737e-01,3.130626432911341439e+01
3.742874486345351581e+00,1.019980488036963706e+01,4.718887987728347611e+00,-4.936651587362344551e-01,-1.752617224863680864e-02,-8.694754420547134988e-01,3.287157754556908174e+01
3.680764371534066548e+00,1.036699153234551751e+01,4.737924332119579418e+00,-4.966082745766539630e-01,-2.095683079067109031e-02,-8.677217485261100594e-01,3.443689076202475263e+01
3.610576892908644364e+00,1.050597426973788906e+01,4.760140178627960239e+00,-4.995390977371023666e-01,-2.438627098632585241e-02,-8.659480351726557279e-01,3.600220397848042353e+01
3.531492035718415856e+00,1.061537425051071537e+01,4.785733902905711545e+00,-5.024574301261119924e-01,-2.781425176103374808e-02,-8.641544412372345052e-01,3.756751719493609443e+01
3.444275276055333013e+00,1.069410710166567924e+01,4.814600057655118448e+00,-4.109751213122584401e-01,-3.257873032966065313e-02,-9.110642545904661382e-01,3.913283041139176532e+01
3.352917270014503792e+00,1.074167970768752944e+01,4.846017619263554899e+00,-3.117847266692946318e-01,-3.714313129697433685e-02,-9.494264963719988293e-01,4.069814362784743622e+01
3.263022674211040641e+00,1.075786770504516277e+01,4.878959859545997091e+00,-2.078564838098092282e-01,-4.133195451600465281e-02,-9.772857062671639339e-01,4.226345684430310712e+01
3.221487455202995509e+00,1.075633714519488571e+01,4.894985433728190394e+00,-1.027437794057511067e-01,-4.500198090476840995e-02,-9.936893566442528414e-01,4.301280212158447114e+01
3.142056993216986616e+00,1.073354277396682299e+01,4.928229908401396742e+00,-0.000000000000000000e+00,-4.806577624515451230e-02,-9.988441726084960059e-01,4.457811533804014203e+01
3.078073843430828127e+00,1.067863222074029217e+01,4.960444888769245608e+00,-0.000000000000000000e+00,-7.928181305841998719e-03,-9.999685714767146960e-01,4.614342855449581293e+01
3.035186194732840459e+00,1.059123259795283367e+01,4.990605461724129555e+00,0.000000000000000000e+00,-7.457440986836894395e-03,-9.999721929003465570e-01,4.770874177095148383e+01
3.019349820103848892e+00,1.052350671511040581e+01,5.007984556209044591e+00,0.000000000000000000e+00,-6.908245573900065849e-03,-9.999761377868428003e-01,4.867384324722500821e+01
3.012681581692967736e+00,1.039293886867577932e+01,5.033185489409447655e+00,0.000000000000000000e+00,-6.259199356006306912e-03,-9.999804110198468043e-01,5.023915646368067911e+01
3.016492285014988894e+00,1.033329538318279717e+01,5.042257910036847868e+00,0.000000000000000000e+00,-5.480349150229136233e-03,-9.999849827738370722e-01,5.087235329732147449e+01
3.041356343761353109e+00,1.017192796172101055e+01,5.060656812914935188e+00,0.000000000000000000e+00,-4.528430867608377458e-03,-9.999897466043725647e-01,5.243766651377714538e+01
3.090471191465332446e+00,9.990096688083655252e+00,5.070664786968619886e+00,0.000000000000000000e+00,-3.338551812691463536e-03,-9.999944270203678931e-01,5.400297973023281628e+01
3.160003202112817711e+00,9.793663489187318660e+00,5.069700557148176578e+00,0.000000000000000000e+00,-1.808745642102133891e-03,-9.999983642182632693e-01,5.556829294668848718e+01
3.246271526805185381e+00,9.588499431317750066e+00,5.055157867991477261e+00,0.000000000000000000e+00,2.309115211519511147e-04,-9.999999733399342894e-01,5.713360616314415807e+01
3.345739921051966714e+00,9.380487345146624634e+00,5.024399549976843460e+00,0.000000000000000000e+00,3.086224619308454171e-03,-9.999952375974593410e-01,5.869891937959982897e+01
3.455008948371142363e+00,9.175524494280344001e+00,4.974751515494236109e+00,0.000000000000000000e+00,7.368601403540997290e-03,-9.999728514881570662e-01,6.026423259605549987e+01
3.570808543271603241e+00,8.979525287146639556e+00,4.903496670765255416e+00,0.000000000000000000e+00,1.450373406048273243e-02,-9.998948153172426689e-01,6.182954581251117077e+01
3.689990917506035917e+00,8.798424032125387484e+00,4.807868729851374923e+00,0.000000000000000000e+00,2.876197932895290313e-02,-9.995862886940181102e-01,6.339485902896684166e+01
3.809523794261504559e+00,8.638177735927065726e+00,4.685045916666941146e+00,0.000000000000000000e+00,7.136302918012966956e-02,-9.974504088255395917e-01,6.496017224542251256e+01
3.926483955700580619e+00,8.504768945315861473e+00,4.532144540658316956e+00,0.000000000000000000e+00,9.999013063471672291e-01,-1.404911261356035605e-02,6.652548546187817635e+01
4.038051089980559283e+00,8.404208632364676745e+00,4.346212431522825881e+00,0.000000000000000000e+00,9.935604257385308169e-02,9.950519467867307011e-01,6.809079867833384014e+01
4.140194858231960318e+00,8.340725946092206300e+00,4.126227661004032043e+00,0.000000000000000000e+00,5.683179485535273801e-02,9.983837674429203446e-01,6.965611189478950394e+01
4.166490889125202379e+00,8.328897975419199184e+00,4.060648205596684157e+00,0.000000000000000000e+00,4.258784169782791479e-02,9.990927262969742095e-01,7.008744721513129150e+01
4.250098612994935188e+00,8.305793630562948948e+00,3.807821961290015267e+00,0.000000000000000000e+00,3.545771643970863779e-02,9.993711774635495315e-01,7.165276043158695529e+01
4.307479359284596576e+00,8.318986986403910322e+00,3.530148688297378268e+00,0.000000000000000000e+00,3.117765827275092300e-02,9.995138586456054908e-01,7.321807364804261908e+01
4.330600542756649851e+00,8.367432375145462231e+00,3.232413940802058683e+00,0.000000000000000000e+00,2.832360491108268374e-02,9.995988062241976113e-01,7.478338686449828288e+01
4.311333297801254183e+00,8.450141392866198586e+00,2.919357599099909883e+00,0.000000000000000000e+00,2.628470741110632697e-02,9.996544973921301924e-01,7.634870008095394667e+01
4.241435046593856839e+00,8.566182827094259267e+00,2.595684660861821591e+00,0.000000000000000000e+00,2.475539432418261826e-02,9.996935382665300684e-01,7.791401329740961046e+01
4.112531808661054278e+00,8.714682697792701660e+00,2.266075952979061281e+00,0.000000000000000000e+00,2.356585334080594368e-02,9.997222867158257475e-01,7.947932651386527425e+01
3.920029437272374295e+00,8.888923878985270477e+00,1.938889094721733652e+00,0.000000000000000000e+00,2.261417688625658867e-02,9.997442668021442325e-01,8.104463973032093804e+01
3.666890560022769030e+00,9.070418497005196201e+00,1.629867831827209068e+00,0.000000000000000000e+00,2.183550560992283951e-02,9.997615769245981054e-01,8.260995294677660183e+01
3.360920792528525602e+00,9.234690804650519169e+00,1.357015232169759500e+00,0.000000000000000000e+00,2.118659548483388388e-02,9.997755388944871147e-01,8.417526616323226563e+01
3.014791369150475742e+00,9.356903648642122207e+00,1.131388668281924748e+00,0.000000000000000000e+00,2.063750598546891871e-02,9.997870239939603554e-01,8.574057937968792942e+01
2.796661496146924719e+00,9.405660982744750598e+00,1.016748118189841454e+00,-0.000000000000000000e+00,2.016684970649313888e-02,9.997966284064554454e-01,8.667642262862665348e+01
2.431869067420956210e+00,9.429144928136881987e+00,8.567704280007810702e-01,1.935706681644845384e-01,-2.633064364548874381e-01,9.450926499279228565e-01,8.824173584508231727e+01
2.083912267683089681e+00,9.361012397958914377e+00,7.407944970403756990e-01,3.871413326354257167e-01,-5.498100588958366730e-01,7.401557185499705316e-01,8.980704906153798106e+01
1.772702436915448709e+00,9.201368763768812187e+00,6.650132291917237870e-01,5.048512704463933298e-01,-7.270626860542610537e-01,4.653010265153361136e-01,9.137236227799364485e+01
1.510780748953683750e+00,8.956327921918587620e+00,6.253291157448217508e-01,5.188667278131690042e-01,-7.286529221544952861e-01,4.470371772058448490e-01,9.293767549444930864e+01
1.301433738210024726e+00,8.635042832049274253e+00,6.174978216350089921e-01,5.340637600672053509e-01,-7.299610735881443269e-01,4.265357326519341741e-01,9.450298871090497244e+01
1.140132354139905324e+00,8.248521920166925980e+00,6.369062887834310294e-01,5.505510730591344215e-01,-7.308559342203309050e-01,4.034143271728992675e-01,9.606830192736063623e+01
1.015924290384656148e+00,7.808437859278686055e+00,6.783499999755498999e-01,5.684347315546736112e-01,-7.311579543096287104e-01,3.772134698179868129e-01,9.763361514381630002e+01
9.147884604522387164e-01,7.326826074877152095e+00,7.363478676377931409e-01,5.878078974789416877e-01,-7.306214095804319797e-01,3.473819677589620736e-01,9.919892836027196381e+01
8.229748354530620480e-01,6.815762782257706931e+00,8.054564929427729947e-01,6.087336257707062215e-01,-7.289102760456172003e-01,3.132621623036397907e-01,1.007642415767276276e+02
7.490706931410902047e-01,6.400415943921997197e+00,8.641572858219367381e-01,6.312170109256028949e-01,-7.255662536595316459e-01,2.740779025544007319e-01,1.019987441907162378e+02
6.415835307876598392e-01,5.869086987703548530e+00,9.390615494974694499e-01,6.551615758319678795e-01,-7.199679290062951376e-01,2.289311921861219568e-01,1.035640574071719016e+02
5.062997112528399013e-01,5.342292729884291269e+00,1.009961735035229902e+00,6.803036335930031653e-01,-7.112820640334368560e-01,1.768185270397042985e-01,1.051293706236275654e+02
3.302288722738947468e-01,4.832317403929026867e+00,1.071443816316700159e+00,7.061187888737611162e-01,-6.984129943087653558e-01,1.166856691291497106e-01,1.066946838400832291e+02
1.249645230544212116e-01,4.348222640847077436e+00,1.117228610242888331e+00,7.316998646935821693e-01,-6.799664505765757871e-01,4.754928072733360933e-02,1.082599970565388929e+02
-6.953743252177443934e-02,3.892877100050923023e+00,1.144552862388284797e+00,7.556209013299153288e-01,-6.542619220261928215e-01,-3.127924007961634112e-02,1.098253102729945567e+02
-2.300531275458410907e-01,3.466618358133833233e+00,1.160245766963060143e+00,7.758341106082724536e-01,-6.194509120739912778e-01,-1.198415635218903624e-01,1.113906234894502205e+02
-2.524878881732708358e-01,3.401878941152518099e+00,1.162278144205694197e+00,7.896950240062783344e-01,-5.738118158832544724e-01,-2.170754915058022150e-01,1.116371084587552360e+02
-3.753383890063547446e-01,3.006356456013612899e+00,1.177357138184640828e+00,7.942473996286707472e-01,-5.162577872442136728e-01,-3.203887721078921835e-01,1.132024216752108998e+02
-4.582665719212086208e-01,2.641581939307015681e+00,1.198758782303399606e+00,7.868516729506664920e-01,-4.469669085955507715e-01,-4.255408645421423497e-01,1.147677348916665636e+02
-4.983780897407584232e-01,2.308308034220862837e+00,1.230518383395815540e+00,7.660385683694607151e-01,-3.678482083646842926e-01,-5.271362322714679971e-01,1.163330481081222274e+02
-4.926676193693637074e-01,2.007291513316869835e+00,1.276694830263398694e+00,7.321916443768500260e-01,-2.824707270786028235e-01,-6.197626031380160105e-01,1.178983613245778912e+02
-4.380119609547789006e-01,1.739293176708624378e+00,1.341379834448806818e+00,6.876039156281388287e-01,-1.953204175692610511e-01,-6.993216639668908829e-01,1.194636745410335550e+02
-3.311628715445861237e-01,1.505077720011559927e+00,1.428707245811143389e+00,6.358121252868011997e-01,-1.107101760377991739e-01,-7.638626828559964554e-01,1.210289877574892188e+02
-2.759077486161212733e-01,1.419454032839493118e+00,1.469436130361923887e+00,5.805989368321755606e-01,-3.190200993721703515e-02,-8.135644635253638235e-01,1.216540905642155082e+02
-1.036785928141151780e-01,1.225459869061426899e+00,1.589010119350748651e+00,5.251836967683344293e-01,3.922543727462650398e-02,-8.500843779998314975e-01,1.232194037806711719e+02
1.151546668080524194e-01,1.067181143109638963e+00,1.741258667241132096e+00,4.718536585017977791e-01,1.020255799462811974e-01,-8.757539072108636580e-01,1.247847169971268357e+02
3.531652065003494934e-01,9.456491625625489394e-01,1.927850791566341204e+00,4.219724874063442432e-01,1.567087502477506056e-01,-8.929622542234866289e-01,1.263500302135824995e+02
5.127058912220179288e-01,8.826867868992384070e-01,2.068320342832695502e+00,3.761787377978732527e-01,2.039640888546222219e-01,-9.038186807576521486e-01,1.273961055843250136e+02
7.435293264154028137e-01,8.172181382126589844e-01,2.297171713930527215e+00,3.346215372692879497e-01,2.446786324943691360e-01,-9.100334024618129680e-01,1.289614188007806774e+02
9.557534035854725607e-01,7.928950931285286829e-01,2.547143209292801913e+00,2.971580056207341891e-01,2.797648438742109667e-01,-9.129231905409930237e-01,1.305267320172363554e+02
1.139119965390315237e+00,8.095246431658668085e-01,2.812107129082080270e+00,2.634930729528351945e-01,3.100710311055237534e-01,-9.134699536246548845e-01,1.320920452336920334e+02
1.288082859013936599e+00,8.636665769371901780e-01,3.084741432836118236e+00,2.332684678165322378e-01,3.363443201147103268e-01,-9.123915388960490702e-01,1.336573584501477114e+02
1.406597939517024054e+00,9.513755778670605068e-01,3.356346955204078331e+00,2.061147607533856674e-01,3.592228556876251311e-01,-9.102063751431331839e-01,1.352226716666033894e+02
1.500088801997900179e+00,1.063806465097742571e+00,3.608090115321908264e+00,1.816792431698408539e-01,3.792423095945425260e-01,-9.072860206211881273e-01,1.367268437277921009e+02
1.584530677149046829e+00,1.206927396889594162e+00,3.851362129971449111e+00,1.596390718763736893e-01,3.968481698900980237e-01,-9.038954014626524591e-01,1.382921569442477789e+02
1.663846858819816088e+00,1.374041017315163149e+00,4.066192314524830209e+00,1.397059289255971615e-01,4.124093671083042256e-01,-9.002226209912544963e-01,1.398574701607034569e+02
1.745047338318740371e+00,1.561914824370223887e+00,4.245620134344096464e+00,1.216260801085629617e-01,4.262311494545779622e-01,-8.964006380363941373e-01,1.414227833771591349e+02
1.753061393872018980e+00,1.580847365248825520e+00,4.260993855900453653e+00,9.301234397570724843e-02,3.346060543612063287e-01,-9.377566274108490862e-01,1.415728202138716085e+02
1.840583561560212411e+00,1.786309314622759326e+00,4.402381635460077547e+00,6.084743808420591676e-02,2.311558365404892401e-01,-9.710121361300565468e-01,1.431381334303272865e+02
1.937188637249119161e+00,2.005956276068189048e+00,4.506127104467208433e+00,2.592409640637944809e-02,1.183371035797514265e-01,-9.926350140620004980e-01,1.447034466467829645e+02
2.044868659716737369e+00,2.237045331899710554e+00,4.573141329748495743e+00,-1.045590220977108721e-02,2.909475678175416882e-04,-9.999452932328311006e-01,1.462687598632386425e+02
2.049629792326129518e+00,2.246948921477646355e+00,4.575198746597474830e+00,-4.667580162897368157e-02,-1.177596630559255148e-01,-9.919445706788497796e-01,1.463343876718070646e+02
2.168933255492433432e+00,2.487452498122118438e+00,4.608226100923332069e+00,-8.114004473896316294e-02,-2.305911700513459950e-01,-9.696617995126498579e-01,1.478997008882627426e+02
2.299552599319728330e+00,2.735723657035853407e+00,4.611013578251879963e+00,-1.126031521002123920e-01,-3.340609149497498209e-01,-9.358011729208466356e-01,1.494650141047184206e+02
2.441244361962414011e+00,2.990156641650943747e+00,4.587101699503356222e+00,-1.403464077947989275e-01,-4.257102307760083360e-01,-8.939092153187222500e-01,1.510303273211740986e+02
2.593123359837431252e+00,3.249230694895481886e+00,4.539366517080725139e+00,-1.513499391608207623e-01,-3.487798323075941287e-01,-9.249031433028555016e-01,1.525956405376297766e+02
2.753024934826414860e+00,3.511593540138044478e+00,4.469422480565461875e+00,-1.615010311277328137e-01,-2.676326030565927550e-01,-9.498895760696773882e-01,1.541609537540854546e+02
2.918140929194688038e+00,3.775986153180939109e+00,4.378229794524582275e+00,-1.705330966116201663e-01,-1.839066234212827222e-01,-9.680376112640636244e-01,1.557262669705411327e+02
3.085652318984848819e+00,4.041163669612656051e+00,4.266700286801690112e+00,-1.782472665963975300e-01,-9.944538165226204929e-02,-9.789476635749986277e-01,1.572915801869968107e+02
3.252723060281911049e+00,4.305894746961429931e+00,4.135699484472313614e+00,-1.845337107867846826e-01,-1.610013431129671962e-02,-9.826943040734578139e-01,1.588568934034524887e+02
3.416493885618498538e+00,4.568960963027370425e+00,3.986048584387311244e+00,-4.661623666577061065e-01,-1.010305649217572120e-02,-8.846414958397567085e-01,1.604222066199081667e+02
3.574076037080295976e+00,4.829156250315544519e+00,3.818526322789374206e+00,-7.696021496332557943e-01,-9.540798121376923126e-04,-6.385229995948336068e-01,1.619875198363638447e+02
3.722544922527428746e+00,5.085286366574900185e+00,3.633870748258765104e+00,-9.554977355682736651e-01,8.340617186541467859e-03,-2.948805036431689786e-01,1.635528330528195227e+02
3.858933681174805397e+00,5.336168401530866134e+00,3.432780902025616587e+00,-9.998929495611769136e-01,1.463179475832167287e-02,0.000000000000000000e+00,1.651181462692752007e+02
3.980226644571704497e+00,5.580630319984583032e+00,3.215918409475114537e+00,-9.956855672529788537e-01,9.204950342101225758e-02,-1.171068247621621927e-02,1.666834594857308787e+02
4.083352678786860146e+00,5.817510541537388669e+00,2.983908986467694646e+00,-9.849019300145304134e-01,1.714777261426636279e-01,-2.373979129215025852e-02,1.682487727021865567e+02
4.165178393339066254e+00,6.045657557285875505e+00,2.737343863902442109e+00,-9.672238706568402344e-01,2.513808591165298534e-01,-3.585592979460377333e-02,1.698140859186422347e+02
4.222501202116042407e+00,6.263929583921325595e+00,2.476781133768965582e+00,-9.427351560116462581e-01,3.300982122618351111e-01,-4.780790605367901680e-02,1.713793991350979127e+02
4.248530029228593463e+00,6.411821394356838510e+00,2.286258122496613865e+00,-9.119403202331449743e-01,4.060079948901429425e-01,-5.934947698467449295e-02,1.724807416425976783e+02
4.263779708286141279e+00,6.612945879486365364e+00,2.006465169652864589e+00,-8.757139658746696531e-01,4.776902838473425228e-01,-7.026409246480933013e-02,1.740460548590533563e+02
4.251202739357614391e+00,6.801180551954522535e+00,1.717196521138821819e+00,-8.351919860094663139e-01,5.440521584196161831e-01,-8.038404956532353707e-02,1.756113680755090343e+02
4.213840068023736229e+00,6.976048609715840954e+00,1.423235277217520078e+00,-8.413791066553826248e-01,5.396281089585106550e-01,2.971031648522363608e-02,1.771766812919647123e+02
4.156282958046189080e+00,7.137951915940270453e+00,1.131529509944749545e+00,-8.351836391142066773e-01,5.255215896262446229e-01,1.621584033982065576e-01,1.787419945084203903e+02
4.083892252338492845e+00,7.287669470583460374e+00,8.500522589823442665e-01,-8.086447797793472336e-01,4.967409046905161829e-01,3.151858082827627139e-01,1.803073077248760683e+02
4.002008926209146722e+00,7.425948649367395404e+00,5.867998511840347708e-01,-7.538258655199684410e-01,4.488558957430137664e-01,4.798697212054615635e-01,1.818726209413317463e+02
3.915965653132293056e+00,7.553505690485891932e+00,3.498101057893157062e-01,-6.676841824117518698e-01,3.811871281185450488e-01,6.394483606311663904e-01,1.834379341577874243e+02
3.831098359813772447e+00,7.671026110325791514e+00,1.471806340848904604e-01,-5.565278492191969573e-01,2.992372634399855236e-01,7.750701988932380271e-01,1.850032473742431023e+02
3.779182251205942755e+00,7.741911791953739908e+00,3.594751893145489013e-02,-4.343369478749035117e-01,2.128889586554287838e-01,8.752312305861351671e-01,1.860045812076832874e+02
3.709138181839373605e+00,7.846208228150361563e+00,-1.028339261848142672e-01,-3.154403810100103178e-01,1.313803970118043174e-01,9.398066595365667242e-01,1.875698944241389654e+02
3.666389894636341573e+00,7.940822854980049250e+00,-1.879322624586372004e-01,-2.088520904518254562e-01,5.995867857304679194e-02,9.761074537045993926e-01,1.891352076405946434e+02
3.666213036495119315e+00,8.025208028681895200e+00,-2.158998507263893141e-01,-1.177652196089313680e-01,0.000000000000000000e+00,9.930414659270077049e-01,1.907005208570503214e+02
3.667357213905529711e+00,8.028906632074814809e+00,-2.158477720508938935e-01,-1.656671611921690379e-01,6.647209104213538944e-02,9.839389477071297518e-01,1.907736673893716386e+02
3.713373215559061524e+00,8.102826078964886491e+00,-1.865298795315746827e-01,-2.193030637955580286e-01,1.422720522151943168e-01,9.652278639618514511e-01,1.923389806058273166e+02
3.792406179603467820e+00,8.166239279381542815e+00,-1.024824570385688138e-01,-2.779634329366793000e-01,2.270042406296400028e-01,9.333838463816570563e-01,1.939042938222829946e+02
3.884680764722182378e+00,8.219105572822229533e+00,3.284426648770878698e-02,-3.398425739555668845e-01,3.187983263712634852e-01,8.848020411539161412e-01,1.954696070387386726e+02
3.975073534471286418e+00,8.261605354371704735e+00,2.152025379422877471e-01,-4.018429041613388319e-01,4.138757313700857643e-01,8.168409633203136400e-01,1.970349202551943506e+02
4.057699084749170737e+00,8.294247055606911445e+00,4.398912839199604630e-01,-4.598637704006523497e-01,5.067164555159461292e-01,7.292213288037123764e-01,1.986002334716500286e+02
4.131282420411380940e+00,8.317689166938295742e+00,7.022369638810277426e-01,-5.097405256740454860e-01,5.911692008696015632e-01,6.250468561865937245e-01,2.001655466881057066e+02
4.194539949196022910e+00,8.332590905782726765e+00,9.976517706134031549e-01,-5.485008668683418742e-01,6.622011791269453163e-01,5.105256089635080707e-01,2.017308599045613846e+02
4.246176582777003716e+00,8.339612634876807817e+00,1.321623185194175099e+00,-5.751905577579383699e-01,7.172962492892529518e-01,3.932453598221872793e-01,2.032961731210170626e+02
4.284882819390369413e+00,8.339416294674444785e+00,1.669703703359032065e+00,-5.907839224800564004e-01,7.566808220060062817e-01,2.800151612813014945e-01,2.048614863374727406e+02
4.309331801663474515e+00,8.332665850172485733e+00,2.037500709890217809e+00,-5.974116543546608149e-01,7.824963105761489901e-01,1.754959805122105199e-01,2.064267995539284186e+02
4.318176343227039915e+00,8.320027752545911426e+00,2.420666477969823482e+00,-5.975007895604215191e-01,7.976651179543530201e-01,8.199491492489528743e-02,2.079921127703840966e+02
4.310045917626787570e+00,8.302171416012233962e+00,2.814888270730303343e+00,-5.932145613644308479e-01,8.050443988906488268e-01,0.000000000000000000e+00,2.095574259868397746e+02
4.305478070898189458e+00,8.296873355639219128e+00,2.918292514097927448e+00,-7.229959644468806346e-01,6.907089341086782852e-01,-1.407138003105850091e-02,2.099632017266150683e+02
4.277731575479760018e+00,8.273927344923070137e+00,3.319040299198436017e+00,-8.420201843702255218e-01,5.386517313291656617e-01,-2.926297061516495296e-02,2.115285149430707463e+02
4.230803874128640452e+00,8.245934259507166075e+00,3.720875960998910159e+00,-9.322658616943962917e-01,3.591011554496168490e-01,-4.389445607311669162e-02,2.130938281595264243e+02
4.164189175600698789e+00,8.212228101425553817e+00,4.119405015630055900e+00,-9.833689605731267269e-01,1.726772351685237905e-01,-5.628552065924646852e-02,2.146591413759821023e+02
4.077324877554755922e+00,8.172142119458467135e+00,4.510225451048325063e+00,-9.978458252684040408e-01,-0.000000000000000000e+00,-6.560265996449830828e-02,2.162244545924377803e+02
3.971412147828547567e+00,8.124877651954596658e+00,4.889419136375146024e+00,-9.788675952300016636e-01,0.000000000000000000e+00,-2.044950635312102194e-01,2.177897678088934583e+02
3.926660524574239641e+00,8.104894215748492670e+00,5.033026058551617332e+00,-9.285416024755489550e-01,0.000000000000000000e+00,-3.712283562339218634e-01,2.183951184418277194e+02
3.805732188889320078e+00,8.047955558579140245e+00,5.394703977241825044e+00,-8.319070847335771068e-01,0.000000000000000000e+00,-5.549149505735821997e-01,2.199604316582833974e+02
3.679696151001262461e+00,7.981042273733653936e+00,5.738181477291022681e+00,-6.835193278513338466e-01,0.000000000000000000e+00,-7.299324136203713120e-01,2.215257448747390754e+02
3.555062621187870420e+00,7.902872129342158658e+00,6.060936948225119636e+00,-4.991442515666163482e-01,0.000000000000000000e+00,-8.665189069651062503e-01,2.230910580911947534e+02
3.438321416173489187e+00,7.812126478148117670e+00,6.360401601777879499e+00,-3.095138682713070577e-01,0.000000000000000000e+00,-9.508949286581204197e-01,2.246563713076504314e+02
3.336093003449777772e+00,7.707444828193739994e+00,6.633972419090837569e+00,-1.398382283213017996e-01,0.000000000000000000e+00,-9.901743633825103030e-01,2.262216845241061094e+02
3.255279708175235598e+00,7.587418479767966240e+00,6.879025019983214584e+00,0.000000000000000000e+00,-0.000000000000000000e+00,-1.000000000000000000e+00,2.277869977405617874e+02
3.200576199979369374e+00,7.451226141077959220e+00,7.093933010652806459e+00,0.000000000000000000e+00,8.468794414363536513e-04,-9.999996413975414944e-01,2.293523109570174654e+02
3.171990464595926262e+00,7.299285235726404863e+00,7.279089603481901705e+00,0.000000000000000000e+00,1.693774068455146387e-03,-9.999985655636737247e-01,2.309176241734731434e+02
3.167233820619510531e+00,7.132640757498763584e+00,7.435864394093699481e+00,0.000000000000000000e+00,2.540682059158837821e-03,-9.999967724621285914e-01,2.324829373899288214e+02
3.170091922260141803e+00,7.069888148830328234e+00,7.486570203646598642e+00,0.000000000000000000e+00,3.387601591469525334e-03,-9.999942620612668476e-01,2.330454513098825373e+02
3.189289403014486712e+00,6.888034053029594261e+00,7.612820259830101577e+00,0.000000000000000000e+00,4.234530843148537338e-03,-9.999910343340776553e-01,2.346107645263382153e+02
3.227192179026550978e+00,6.693993426850226136e+00,7.713610957862048423e+00,0.000000000000000000e+00,5.081467991816030448e-03,-9.999870892581804727e-01,2.361760777427938933e+02
3.281727383040303536e+00,6.488821295031453218e+00,7.790119838189316859e+00,0.000000000000000000e+00,5.928411214970589690e-03,-9.999824268158247209e-01,2.377413909592495713e+02
3.350879103598848996e+00,6.273575857604945405e+00,7.843469158891942961e+00,0.000000000000000000e+00,6.775358690008836948e-03,-9.999770469938906725e-01,2.393067041757052493e+02
3.432683866105967319e+00,6.049318834122977329e+00,7.874728450721136142e+00,0.000000000000000000e+00,7.622308594245035505e-03,-9.999709497838894512e-01,2.408720173921609273e+02
3.525226239426854313e+00,5.817115830463282400e+00,7.884916952093364628e+00,0.000000000000000000e+00,8.469259104930699361e-03,-9.999641351819641422e-01,2.424373306086166053e+02
3.626634558452798363e+00,5.578036727859570831e+00,7.875005929584185438e+00,0.000000000000000000e+00,9.316208399274206881e-03,-9.999566031888890150e-01,2.440026438250722833e+02
3.735076753312025932e+00,5.333156093862918112e+00,7.845920889205258320e+00,0.000000000000000000e+00,1.016315465446042225e-02,-9.999483538100704116e-01,2.455679570415279613e+02
3.848756276146477973e+00,5.083553614994027470e+00,7.798543683498952106e+00,0.000000000000000000e+00,1.101009604767029179e-02,-9.999393870555459696e-01,2.471332702579836393e+02
3.965908116592077093e+00,4.830314550900049575e+00,7.733714519247567587e+00,0.000000000000000000e+00,1.185703075610047841e-02,-9.999297029399860648e-01,2.486985834744393173e+02
4.084794897298690053e+00,4.574530209882307297e+00,7.652233870368088553e+00,0.000000000000000000e+00,1.270395695698296572e-02,-9.999193014826921466e-01,2.502638966908949953e+02
4.203703041005850238e+00,4.317298445712896005e+00,7.554864300347502670e+00,0.000000000000000000e+00,1.355087282760467429e-02,-9.999081827075974038e-01,2.518292099073506733e+02
4.320939000851660161e+00,4.059724175709059857e+00,7.442332198367838991e+00,0.000000000000000000e+00,1.439777654532707792e-02,-9.998963466432662095e-01,2.533945231238063514e+02
4.434825545735888497e+00,3.802919920084309791e+00,7.315329433073602949e+00,0.000000000000000000e+00,1.524466628760581637e-02,-9.998837933228937880e-01,2.549598363402620294e+02
4.543698092684318013e+00,3.548006362644748890e+00,7.174514927746689530e+00,0.000000000000000000e+00,1.609154023201030126e-02,-9.998705227843059928e-01,2.565251495567176789e+02
4.645901078269732309e+00,3.296112932948079610e+00,7.020516160474919332e+00,0.000000000000000000e+00,1.693839655624332710e-02,-9.998565350699586407e-01,2.580904627731733285e+02
4.739784361236044852e+00,3.048378410091422186e+00,6.853930592729644999e+00,0.000000000000000000e+00,1.778523343816067193e-02,-9.998418302269365121e-01,2.596557759896289781e+02
4.823699648546488916e+00,2.805951548342341173e+00,6.675327029604886775e+00,0.000000000000000000e+00,1.863204905579071008e-02,-9.998264083069533514e-01,2.612210892060846277e+02
4.895996937134465377e+00,2.569991724875617667e+00,6.485246914814814190e+00,0.000000000000000000e+00,1.947884158735399551e-02,-9.998102693663507567e-01,2.627864024225402773e+02
4.955020963676451728e+00,2.341669609926356532e+00,6.284205563397851968e+00,0.000000000000000000e+00,2.032560921128286069e-02,-9.997934134660970695e-01,2.643517156389959268e+02
4.999107654730517325e+00,2.122167859718071092e+00,6.072693334933814135e+00,0.000000000000000000e+00,2.117235010624101549e-02,-9.997758406717871527e-01,2.659170288554515764e+02
5.020045957053694607e+00,1.984947909889375417e+00,5.931528640494924787e+00,0.000000000000000000e+00,2.201906245114310101e-02,-9.997575510536405030e-01,2.669272424265950008e+02
5.039443160191894755e+00,1.780199911955078651e+00,5.706002396603331306e+00,0.000000000000000000e+00,2.286574442517430236e-02,-9.997385446865008074e-01,2.684925556430506504e+02
5.039417811429912852e+00,1.587476552186499967e+00,5.471311204036745757e+00,0.000000000000000000e+00,2.371239420780988857e-02,-9.997188216498343882e-01,2.700578688595062999e+02
5.018500612013965245e+00,1.408388255556614066e+00,5.227674482855091398e+00,-8.328935511040498965e-03,1.446054411011415686e-01,-9.894543421690550344e-01,2.716231820759619495e+02
4.975704323994960987e+00,1.245317826742888823e+00,4.974902614703759163e+00,-1.693609172078194836e-02,2.691596716988625126e-01,-9.629466443828473832e-01,2.731884952924175991e+02
4.969942197538707696e+00,1.228881984029359664e+00,4.947464556489237886e+00,-2.540413744286890152e-02,3.912986919559651167e-01,-9.199130195156141054e-01,2.733552909368572159e+02
4.904169122689527427e+00,1.084989826706890703e+00,4.685043051854077767e+00,-3.331574151776465348e-02,5.050031178833748191e-01,-8.624742965997257427e-01,2.749206041533128655e+02
4.814961734262136694e+00,9.629773870894791088e-01,4.412666632125066712e+00,-4.035058424030640162e-02,6.057098217322965938e-01,-7.946618414196665592e-01,2.764859173697685151e+02
4.703046601095725698e+00,8.659799210408900549e-01,4.129431333499029577e+00,8.466130617035071110e-06,6.062249577557686786e-01,-7.952932166957926707e-01,2.780512305862241647e+02
4.652007538764165062e+00,8.326717970815884495e-01,4.010295247174794575e+00,8.655659861963212187e-02,6.201265371170181506e-01,-7.797121476536424955e-01,2.786940712534950535e+02
4.520039322829187967e+00,7.684914265488909102e-01,3.713434410206457592e+00,1.937078194019730415e-01,6.305825514787568586e-01,-7.515603278999454240e-01,2.802593844699507031e+02
4.378011001946265246e+00,7.330894906790543786e-01,3.406817002510637238e+00,3.240776991255354123e-01,6.326670366466567996e-01,-7.033534429220039685e-01,2.818246976864063527e+02
4.228700908943116232e+00,7.262905436577400398e-01,3.094587769102758568e+00,4.755302225306429209e-01,6.184888085453789097e-01,-6.255738175180248772e-01,2.833900109028620022e+02
4.073323732715548040e+00,7.478644398197872301e-01,2.781839289123712700e+00,6.360592530719327842e-01,5.786087049384869285e-01,-5.105297181859071998e-01,2.849553241193176518e+02
3.913076298470409498e+00,7.975914637192417223e-01,2.473662959515780191e+00,7.824172996208685893e-01,5.078201187429012275e-01,-3.604745431426936153e-01,2.865206373357733014e+02
3.749140474505511467e+00,8.752622820052635699e-01,2.175160586579051536e+00,8.904773812402363431e-01,4.121746247387012563e-01,-1.927747707067543337e-01,2.880859505522289510e+02
3.582679302682784783e+00,9.795621457045905478e-01,1.889988692864269737e+00,9.510474325340753099e-01,3.074171529170374728e-01,-3.167767609415321484e-02,2.896512637686846006e+02
3.415038591772949328e+00,1.106938797403536734e+00,1.618687490091776038e+00,9.722094662507926310e-01,2.086751932177327573e-01,1.061292488802725725e-01,2.912165769851402501e+02
3.247948509949360574e+00,1.252699353552548578e+00,1.359937373899699820e+00,9.684967517605901355e-01,1.237347171437121751e-01,2.161105309848443679e-01,2.927818902015958997e+02
3.083287787406010949e+00,1.412137389639295915e+00,1.112235271369689915e+00,9.520280343575510118e-01,5.395645018535909221e-02,3.012164060616426275e-01,2.943472034180515493e+02
2.922855313636585350e+00,1.580545692001546376e+00,8.741032625014127921e-01,9.303527144256833470e-01,-2.383318412293171547e-03,3.666580785338139914e-01,2.959125166345071989e+02
2.768374188866032704e+00,1.753213961879846350e+00,6.440852154500092963e-01,7.195395995039125525e-01,-1.912227423981817604e-03,6.944487800637482167e-01,2.974778298509628485e+02
2.726783449186171104e+00,1.801131560898176165e+00,5.816977979811849275e-01,3.193929089312617098e-01,-9.561137253292208106e-04,9.476218948351557980e-01,2.979098170579341627e+02
2.580913650430307182e+00,1.972709999344996135e+00,3.587320344606604317e-01,-6.709871396896584239e-02,0.000000000000000000e+00,9.977463418042237242e-01,2.994751302743898123e+02
2.443159526401614379e+00,2.138083564008396387e+00,1.438346746225102890e-01,-6.965287726797342316e-02,0.000000000000000000e+00,9.975712890256479559e-01,3.010404434908454618e+02
2.310346859279565290e+00,2.293406727151806823e+00,-5.508301309877958185e-02,-7.263156106627872977e-02,0.000000000000000000e+00,9.973588403062738639e-01,3.026057567073011114e+02
2.177686364578971467e+00,2.435139355375611103e+00,-2.269685439476025468e-01,-7.615009136607260587e-02,0.000000000000000000e+00,9.970963662479864764e-01,3.041710699237567610e+02
2.040325033174596570e+00,2.559755944084813883e+00,-3.607078892108151469e-01,-8.036967600318177529e-02,0.000000000000000000e+00,9.967651253826769198e-01,3.057363831402124106e+02
1.893335356280538395e+00,2.663743947973652215e+00,-4.451001729680864605e-01,-8.552270751065935150e-02,0.000000000000000000e+00,9.963362216139922678e-01,3.073016963566680602e+02
1.731704351550161114e+00,2.743602169069891072e+00,-4.688321711174139317e-01,-9.195685389246281705e-02,0.000000000000000000e+00,9.957629923943750461e-01,3.088670095731237097e+02
1.550322366409378372e+00,2.795839202403542778e+00,-4.204525546184665896e-01,-1.002164687599837734e-01,0.000000000000000000e+00,9.949656573918916891e-01,3.104323227895793593e+02
1.344698969873300953e+00,2.818857651910226192e+00,-2.920900338146532604e-01,-1.112040911449739405e-01,0.000000000000000000e+00,9.937975901121014477e-01,3.119976360060350089e+02
1.319581527364458440e+00,2.819816102532263002e+00,-2.725872149650281906e-01,-1.265314836543805777e-01,0.000000000000000000e+00,9.919625918572844148e-01,3.121772500365265728e+02
1.086126975878266121e+00,2.815745656430313826e+00,-6.275947832286589423e-02,-1.493805113568932030e-01,0.000000000000000000e+00,9.887797847987959132e-01,3.137425632529822224e+02
8.227221103009730863e-01,2.789151617231475644e+00,2.242289354311298999e-01,-1.869988900751201333e-01,0.000000000000000000e+00,9.823601249596163321e-01,3.153078764694378719e+02
6.877311914796681025e-01,2.770709619306783722e+00,3.836806510136034909e-01,-2.599743087938774511e-01,0.000000000000000000e+00,9.656155336194347516e-01,3.160572132379033974e+02
4.012766006763552329e-01,2.726811951582829519e+00,7.516427384721219296e-01,-4.531851790769328980e-01,0.000000000000000000e+00,8.914163973503115290e-01,3.176225264543590470e+02
1.269220260222925223e-01,2.681178576423368209e+00,1.162278163584802071e+00,-9.994274880504221414e-01,0.000000000000000000e+00,-3.383335823153629796e-02,3.191878396708146965e+02
-1.051391420724929748e-01,2.644975470548067698e+00,1.591797309749426015e+00,-3.918633061716492727e-01,0.000000000000000000e+00,-9.200234503947299913e-01,3.207531528872703461e+02
-2.727354276757368301e-01,2.625254978990147592e+00,2.017365444641679773e+00,-1.940769109175872198e-01,0.000000000000000000e+00,-9.809863162392667979e-01,3.223184661037259957e+02
-3.700844054383866100e-01,2.621031155965841464e+00,2.425834939817562041e+00,-1.201361758880976210e-01,0.000000000000000000e+00,-9.927574221545685251e-01,3.238837793201816453e+02
-3.996053782585283765e-01,2.627333954404138971e+00,2.810179340584364471e+00,-8.216977792547859594e-02,0.000000000000000000e+00,-9.966183460059711008e-01,3.254490925366372949e+02
-3.636535212287149155e-01,2.639210307004317357e+00,3.163317266751981105e+00,-5.915781662404146629e-02,0.000000000000000000e+00,-9.982486427400121265e-01,3.270144057530929445e+02
-2.645249527569087378e-01,2.651721047414211441e+00,3.478096290489179232e+00,-4.374141881009955407e-02,0.000000000000000000e+00,-9.990428861067374156e-01,3.285797189695485940e+02
-1.044617268867570753e-01,2.659937862501300376e+00,3.747276652426799970e+00,-3.269995826001061839e-02,0.000000000000000000e+00,-9.994652133665250515e-01,3.301450321860042436e+02
1.114790563369270487e-01,2.658945647660019507e+00,3.963526837908180944e+00,-2.440533129684111652e-02,0.000000000000000000e+00,-9.997021455435071147e-01,3.317103454024598932e+02
3.725454900712324990e-01,2.644317869711958036e+00,4.125175439726856297e+00,-1.794714924029245512e-02,0.000000000000000000e+00,-9.998389369464197873e-01,3.332756586189155428e+02
6.651379868232576431e-01,2.612590377991396817e+00,4.241951789254097882e+00,-1.277690940796907815e-02,0.000000000000000000e+00,-9.999183719614218591e-01,3.348409718353711924e+02
9.756645386132620779e-01,2.560807559050162663e+00,4.329239552796265045e+00,-8.544584091385115654e-03,0.000000000000000000e+00,-9.999634943750222993e-01,3.364062850518268419e+02
1.112209522400523953e+00,2.532777712638988543e+00,4.361765219147772932e+00,-5.016358634843634534e-03,0.000000000000000000e+00,-9.999874179938699204e-01,3.370822557396472803e+02
1.427081243051816051e+00,2.454250946628633745e+00,4.431321650216212049e+00,-2.030126838017695754e-03,0.000000000000000000e+00,-9.999979392903876052e-01,3.386475689561029299e+02
1.737961256489722217e+00,2.354896243086928465e+00,4.489674761035304051e+00,5.300273656876602468e-04,0.000000000000000000e+00,-9.999998595354860909e-01,3.402128821725585794e+02
2.042597415311457887e+00,2.238079909900254627e+00,4.533207399682165573e+00,-3.325810001422323942e-02,0.000000000000000000e+00,-9.994467963745964356e-01,3.417781953890142290e+02
2.338784439492918477e+00,2.107168713712994190e+00,4.558268672503333008e+00,-6.700824901989284321e-02,0.000000000000000000e+00,-9.977524214770355782e-01,3.433435086054698786e+02
2.624130457203252220e+00,1.965634888839920436e+00,4.561739641064614936e+00,-6.203264084608292595e-02,9.202572940296951942e-02,-9.938225277168516447e-01,3.449088218219255282e+02
2.895825661762277736e+00,1.817162634332147642e+00,4.541600230200812938e+00,-5.608817184238835962e-02,1.901876119880408222e-01,-9.801442695979327713e-01,3.464741350383811778e+02
2.965903913831097860e+00,1.776946010769960838e+00,4.532754046446885177e+00,-4.920019240796019017e-02,2.919549147903080510e-01,-9.551657807924254229e-01,3.468905440107113236e+02
3.219128522270195525e+00,1.625463860697582419e+00,4.485425591160638881e+00,-4.149410605359641485e-02,3.939629535340672950e-01,-9.181892127473112453e-01,3.484558572271669732e+02
3.451840418666357824e+00,1.475670145430224123e+00,4.411033131812613917e+00,-3.319528486000371953e-02,4.924536921716578530e-01,-8.697053720252424514e-01,3.500211704436226228e+02
3.661105963549037945e+00,1.331392569834617401e+00,4.307953347264886546e+00,-2.460009624115506999e-02,5.839098304630041536e-01,-8.114457130046295319e-01,3.515864836600782724e+02
3.844007816833053148e+00,1.196475483722225785e+00,4.174497604062452183e+00,-1.602519199350539367e-02,6.656566435589104103e-01,-7.460860715141764965e-01,3.531517968765339219e+02
3.997638630440192742e+00,1.074781989847560792e+00,4.008908111933205731e+00,-7.754080130208758706e-03,7.362058375449925807e-01,-6.767132620290593481e-01,3.547171100929895715e+02
4.121161968117574403e+00,9.703584193341624475e-01,3.811214671305983792e+00,0.000000000000000000e+00,7.952565528098449743e-01,-6.062730533456045512e-01,3.562824233094452211e+02
4.216923051001296052e+00,8.869929616974485675e-01,3.585390266273844606e+00,-6.913394433156947166e-04,8.355388085851837010e-01,-5.494309978494348323e-01,3.578477365259008707e+02
4.250522452789153860e+00,8.578074453921956666e-01,3.485074471348225789e+00,-1.592618048308961720e-03,8.822026691744627724e-01,-4.708671936642066513e-01,3.585014195748505585e+02
4.316720708761546454e+00,8.029151851777193150e-01,3.235225064319152022e+00,-2.779662949905975511e-03,9.331789389618009301e-01,-3.594013652617534804e-01,3.600667327913062081e+02
4.359767303466427713e+00,7.749121393810045610e-01,2.973101745279835395e+00,-4.324214292288760739e-03,9.799045424011334493e-01,-1.994201317630181769e-01,3.616320460077618577e+02
4.381183830784634026e+00,7.759799263602188413e-01,2.705275903735126608e+00,-6.203795672505009809e-03,9.997041916293970543e-01,2.351684838297072103e-02,3.631973592242175073e+02
4.382482389231924458e+00,8.083095514695598505e-01,2.438305946257572909e+00,-8.116125479189748720e-03,9.536512609172854704e-01,3.008045894897176664e-01,3.647626724406731569e+02
4.365169197978256754e+00,8.741026786055141606e-01,2.178752227975035538e+00,-9.468813063818236689e-03,8.174153669117524279e-01,5.759708842603831203e-01,3.663279856571288065e+02
4.330743599451710502e+00,9.748077661071975486e-01,1.932185775491199964e+00,-9.926073088612126852e-03,6.248151205617622495e-01,7.807096375672775146e-01,3.678932988735844560e+02
4.280675870648053660e+00,1.109886546199991386e+00,1.701228929726917194e+00,-9.729482173280925433e-03,4.355131306557469273e-01,9.001297963088823462e-01,3.694586120900401056e+02
4.216373625552423121e+00,1.277109789817657548e+00,1.485601701494134952e+00,-9.265543181662333830e-03,2.799536821510965057e-01,9.599687940550941656e-01,3.710239253064957552e+02
4.139166282629228810e+00,1.473790793430586055e+00,1.284093174714006302e+00,-8.759399279443462472e-03,1.604004855561285692e-01,9.870131494350120605e-01,3.725892385229514048e+02
4.050305309030002299e+00,1.697253504955854808e+00,1.095524577228346619e+00,-8.296073331780196361e-03,6.962823414941192446e-02,9.975385126282134696e-01,3.741545517394070544e+02
3.950967245474590328e+00,1.944831367311050663e+00,9.187465971158219613e-01,-7.896110403326194946e-03,0.000000000000000000e+00,9.999688252343162942e-01,3.757198649558627039e+02
3.883831741839893770e+00,2.111458852228031535e+00,8.117295566933054873e-01,3.075312632428030919e-05,0.000000000000000000e+00,9.999999995271227071e-01,3.767109296839025774e+02
3.772441993109733716e+00,2.388224892521150444e+00,6.499389112334242879e-01,1.818608863727173841e-02,-2.116411901291328501e-01,9.771782195796226977e-01,3.782762429003582270e+02
3.655291402992554506e+00,2.682811048109806418e+00,4.984771012998785444e-01,3.633991396079033764e-02,-4.232823734230179435e-01,9.052687131469302484e-01,3.798415561168138765e+02
3.535240145332230632e+00,2.993301199555993275e+00,3.576381876205215748e-01,5.194392941761561550e-02,-6.052149264965294151e-01,7.943656091136236386e-01,3.814068693332695261e+02
3.415107007231489522e+00,3.317775066806171402e+00,2.277404159992776622e-01,-1.628408860258663271e-01,-2.179209148443771726e-01,9.622854673701045636e-01,3.829721825497251757e+02
3.297675708953450524e+00,3.654307302527918910e+00,1.091269418642519112e-01,-3.410962246890796856e-01,2.182585015634783132e-01,9.143394293139293083e-01,3.845374957661808253e+02
3.218774225863633820e+00,3.892962090633330430e+00,3.289923555149691647e-02,-2.691233342054697442e-01,7.957789578264730379e-02,9.598124762102945295e-01,3.856221920053616827e+02
3.109484559104637391e+00,4.243553471863062754e+00,-6.836940855259783512e-02,-1.851264871243306909e-01,-6.959135457478329845e-02,9.802475336023304120e-01,3.871875052218173323e+02
3.006529599157661270e+00,4.600896164605291716e+00,-1.579092823022672232e-01,-9.562684432648291266e-02,-2.166920323325239595e-01,9.715451969763213569e-01,3.887528184382729819e+02
2.910371023412357872e+00,4.963019777985493874e+00,-2.356724425851056681e-01,-8.509972854394485045e-03,-3.496798190746399082e-01,9.368306167573433596e-01,3.903181316547286315e+02
2.821450210645565004e+00,5.327954529299935515e+00,-3.015841343158093268e-01,5.614915518363234118e-03,-3.130214804492237324e-01,9.497294485805406472e-01,3.918834448711842811e+02
2.740189245457581357e+00,5.693730224262227857e+00,-3.555426202400966407e-01,1.990598206881229876e-02,-2.753612511216865788e-01,9.611347112962759232e-01,3.934487580876399306e+02
2.666991860411023207e+00,6.058375232520193165e+00,-3.974189493089556047e-01,3.428999230560076522e-02,-2.368737949441336310e-01,9.709351171404020375e-01,3.950140713040955802e+02
2.602244317924562900e+00,6.419915458148180321e+00,-4.270566630955091036e-01,4.869022389858500277e-02,-1.977518205289188757e-01,9.790421234932662475e-01,3.965793845205512298e+02
2.546316233831449782e+00,6.776373304808198661e+00,-4.442714395869116206e-01,6.302844142717854703e-02,-1.582014561309008915e-01,9.853931777972300132e-01,3.981446977370068794e+02
