4.504916751035999312e+00,7.477022603167018389e-01,2.326362027464992099e+00,-2.031974800433300823e-02,9.158053949307345398e-01,4.011079486332845834e-01,1.503115921149257304e+02
4.529605787487193780e+00,6.889140433185307888e-01,2.518240813208554307e+00,-2.484213385989221187e-02,9.595642078454207358e-01,2.803915109401088901e-01,1.515895622995178655e+02
4.547697942831025131e+00,6.438063459402764144e-01,2.708781166407996377e+00,-2.926561608304429143e-02,9.890259555149324422e-01,1.448143053467256802e-01,1.528675324841100007e+02
4.558933923307273872e+00,6.123164246390403465e-01,2.896735988559588915e+00,-3.327350425637297382e-02,9.994460879389145402e-01,6.254743006057034106e-04,1.541455026687021359e+02
4.563033335254010225e+00,5.944244274085669355e-01,3.080850353251596729e+00,-3.658547500732747815e-02,9.889627444285337132e-01,-1.435764366143374993e-01,1.554234728532942711e+02
4.559694089956070506e+00,5.901534621544402004e-01,3.259857706779226483e+00,-3.904530046550160061e-02,9.594415570737071519e-01,-2.791905497532803926e-01,1.567014430378864063e+02
4.548591743324558401e+00,5.995697990282269352e-01,3.432476033555476480e+00,-4.065229211916368546e-02,9.156298173526444817e-01,-3.999617840747054509e-01,1.579794132224785415e+02
4.529378769205476551e+00,6.227832077273999234e-01,3.597403974709980634e+00,-4.152492288888846167e-02,8.632910204275795474e-01,-5.029953228690902112e-01,1.592573834070706766e+02
4.501683764921241782e+00,6.599474311865707321e-01,3.753316888124627937e+00,-4.183444366707567835e-02,8.075600226459463959e-01,-5.882998292938258489e-01,1.605353535916628118e+02
4.465110587452986834e+00,7.112607975073573785e-01,3.898862837977338902e+00,-4.175011678108572766e-02,7.521658203441903279e-01,-6.576499878010467759e-01,1.618133237762549470e+02
4.419237418472955703e+00,7.769669724033108071e-01,4.032658501652311323e+00,-4.141133699145984476e-02,6.994001389871146168e-01,-7.135296397160980630e-01,1.630912939608470822e+02
4.390496015895323012e+00,8.184749972252491901e-01,4.095204517598166838e+00,-4.092114937053001333e-02,6.504372970559254563e-01,-7.584568426303347488e-01,1.637528503567718019e+02
4.324991938771352906e+00,9.133652988848627308e-01,4.201904802582303589e+00,-4.035058424030640162e-02,6.057098217322965938e-01,-7.946618414196665592e-01,1.650308205413639371e+02
4.249635848950881645e+00,1.023434452306224651e+00,4.293489230828418712e+00,-4.944172352136909365e-02,5.762396972788175198e-01,-8.157838728825504981e-01,1.663087907259560723e+02
4.165653520500081974e+00,1.149068487299539587e+00,4.369612857933701022e+00,-5.867771753061554879e-02,5.452338467594711746e-01,-8.362278265002108801e-01,1.675867609105482074e+02
4.074833169411828493e+00,1.290678556447741432e+00,4.430284519242700725e+00,-6.801960099274120819e-02,5.127508480865285989e-01,-8.558387124145144798e-01,1.688647310951403426e+02
3.978944795285671354e+00,1.448713526707052113e+00,4.475466268102289646e+00,-7.742430985656861830e-02,4.788739260836733513e-01,-8.744628289186696657e-01,1.701427012797324778e+02
3.879406707329751125e+00,1.623212239944481938e+00,4.505594553798240476e+00,-8.684542010849355398e-02,4.437111554597307772e-01,-8.919519513554358126e-01,1.714206714643246130e+02
3.776890526293167127e+00,1.813313623342228009e+00,4.522168915417101864e+00,-9.623409703541212223e-02,4.073946643703300063e-01,-9.081677080861029205e-01,1.726986416489167482e+02
3.671599960223453252e+00,2.017664281850943819e+00,4.527301308668000956e+00,-1.055402206465195780e-01,3.700787729924164271e-01,-9.229858956703029804e-01,1.739766118335088834e+02
3.563665315976159764e+00,2.234909333795362496e+00,4.523135127514047227e+00,-1.147136345217612680e-01,3.319370820287679824e-01,-9.363004622603978699e-01,1.752545820181010185e+02
3.453200828710981440e+00,2.463732236313644464e+00,4.511785613783021454e+00,-1.237054505253648296e-01,2.931586144841230035e-01,-9.480268921629101397e-01,1.765325522026931537e+02
3.340305227749928996e+00,2.702850890493566638e+00,4.495346261209510530e+00,-1.324693330474945030e-01,2.539431991607223327e-01,-9.581047580520460905e-01,1.778105223872852889e+02
3.225062232196666656e+00,2.951013847695808767e+00,4.475895153644116498e+00,-1.409626853917765321e-01,2.144963541964076681e-01,-9.664992681650557138e-01,1.790884925718774241e+02
3.194162287983890902e+00,3.018176660276735923e+00,4.470444421647727040e+00,-1.491476681088317879e-01,1.750239733919724816e-01,-9.732017169301458992e-01,1.794240690589754479e+02
3.074128448293486304e+00,3.280732274843114471e+00,4.449689381993208848e+00,-1.569919936395686999e-01,1.357271306654398157e-01,-9.782288382246764336e-01,1.807020392435675831e+02
2.952035942311533656e+00,3.549435830161415506e+00,4.430225065430513531e+00,-1.644694615301394991e-01,9.679729752477302107e-02,-9.816211486188989310e-01,1.819800094281597183e+02
2.828146419369907072e+00,3.823031101907186091e+00,4.412962598020113703e+00,-1.715602208866138234e-01,5.841221908199342033e-02,-9.834404421576597999e-01,1.832579796127518534e+02
2.702785363280544306e+00,4.100244269259473384e+00,4.398433839276159496e+00,-1.782507686244981238e-01,2.073262421143286932e-02,-9.837666500639687950e-01,1.845359497973439886e+02
2.695139996175151431e+00,4.117132482701659768e+00,4.397706840191684563e+00,-1.845337107867846826e-01,-1.610013431129671962e-02,-9.826943040734578139e-01,1.846132828254166327e+02
2.568188677845788970e+00,4.397484766614360829e+00,4.388330881447874532e+00,-4.730092251022989698e-03,-8.028414844100014922e-03,-9.999565844487389166e-01,1.858912530100087679e+02
2.441230667872402726e+00,4.679142942743961697e+00,4.382147366203652084e+00,-4.014112585731025550e-03,-9.130304690926330236e-02,-9.958150634155088499e-01,1.871692231946009031e+02
2.315369416758931820e+00,4.961180330417197304e+00,4.379049341940605800e+00,-3.247552548983817945e-03,-1.764039739904185722e-01,-9.843124968031388144e-01,1.884471933791930383e+02
2.191706120467862284e+00,5.242664766560096723e+00,4.378939197695109975e+00,-2.444861218089258020e-03,-2.614654323340765973e-01,-9.652097442255640480e-01,1.897251635637851734e+02
2.071343028183984636e+00,5.522655784434697956e+00,4.381728368531956797e+00,-1.623586470629498259e-03,-3.445394889232902269e-01,-9.387704216364352039e-01,1.910031337483773086e+02
1.955386736214124399e+00,5.800201747383354700e+00,4.387337067406227753e+00,-8.025222299982152007e-04,-4.238114690059170964e-01,-9.057500729766003733e-01,1.922811039329694438e+02
1.844951477744164903e+00,6.074336928949676029e+00,4.395694043601604761e+00,3.685840016308102022e-07,-4.977913964173884542e-01,-8.672967921378994527e-01,1.935590741175615790e+02
1.741333875903906092e+00,6.344068665345427682e+00,4.406732111769773752e+00,9.879907563659856562e-02,-4.918088858910857342e-01,-8.650796277869008399e-01,1.948370443021537142e+02
1.739476963453338021e+00,6.349046465114592586e+00,4.406965678425781796e+00,2.056373695998233442e-01,-4.797603615004067956e-01,-8.529614690928686294e-01,1.948608597518138481e+02
1.644745191717190913e+00,6.613004414967962319e+00,4.420960011232797804e+00,3.173643504823298600e-01,-4.606317965423704086e-01,-8.289138779493785414e-01,1.961388299364059833e+02
1.560370501322446479e+00,6.870417951305248572e+00,4.437503025216916086e+00,4.294907086921206929e-01,-4.340530069773435029e-01,-7.919190099252991777e-01,1.974168001209981185e+02
1.488224022586978945e+00,7.120184182330620004e+00,4.456539553803672504e+00,5.368632781177639091e-01,-4.005744327319231690e-01,-7.425078750088421886e-01,1.986947703055902537e+02
1.430207341070509397e+00,7.361165695637289730e+00,4.478021979712112355e+00,6.347282776359988166e-01,-3.616782944590968829e-01,-6.828680874710703064e-01,1.999727404901823888e+02
1.388258062849215380e+00,7.592186911680231631e+00,4.501910090788742380e+00,7.197297707798130384e-01,-3.194672755096076289e-01,-6.163843905646104737e-01,2.012507106747745240e+02
1.364355467003995237e+00,7.812030287890856961e+00,4.528170958262375478e+00,7.903898735631228467e-01,-2.761721203115911072e-01,-5.468206357952037910e-01,2.025286808593666592e+02
1.360526261568797635e+00,8.019432361359763561e+00,4.556778837052132047e+00,8.469545333967970491e-01,-2.337126144865030175e-01,-4.775420737364376444e-01,2.038066510439587944e+02
1.378339902380926185e+00,8.213109029724632748e+00,4.587524874149974785e+00,7.893197700020805341e-01,-3.025320423840444084e-01,-5.342739597012020614e-01,2.050846212285509296e+02
1.418402741391758815e+00,8.391784833058292037e+00,4.619826262658936145e+00,7.191497833341163881e-01,-3.711849217520291622e-01,-5.874056034755146261e-01,2.063625914131430648e+02
1.421226269414699539e+00,8.400524880571925479e+00,4.621545267580002836e+00,6.378277484079504234e-01,-4.368255529307751295e-01,-6.343179011091890640e-01,2.064289637349575344e+02
1.489109693437460358e+00,8.558082515477535068e+00,4.655162169530945526e+00,5.481356704650296452e-01,-4.967338417621782742e-01,-6.729062172487630944e-01,2.077069339195496696e+02
1.576246711001068501e+00,8.699287943519252053e+00,4.689238122309901335e+00,4.538107323076329136e-01,-5.488438606644998607e-01,-7.020158373237008753e-01,2.089849041041418047e+02
1.679720636793026411e+00,8.824089433381256953e+00,4.723467495086566714e+00,3.588157289843061926e-01,-5.920765985521623254e-01,-7.215930806766113204e-01,2.102628742887339399e+02
1.796788398590967617e+00,8.932323768531162500e+00,4.757547345497868285e+00,3.042345329166317169e-01,-5.659943990775173628e-01,-7.662190869417695449e-01,2.115408444733260751e+02
1.873453095481246056e+00,8.987004320903213994e+00,4.777661201255535950e+00,2.425109504807069771e-01,-5.337734790428256826e-01,-8.101075928341012755e-01,2.123045417785880602e+02
2.011078039038677101e+00,9.061359471349094363e+00,4.810648054163021214e+00,1.737484537815659758e-01,-4.947621670074784928e-01,-8.514821624124482291e-01,2.135825119631801954e+02
2.156084300394996323e+00,9.117916316810848798e+00,4.842683782659380931e+00,9.865225798164492521e-02,-4.486644339536360326e-01,-8.882386828438550985e-01,2.148604821477723306e+02
2.306213379308462930e+00,9.156133790077140233e+00,4.873467388146296209e+00,1.864447559730718698e-02,-3.957301609236001938e-01,-9.181775554134846695e-01,2.161384523323644657e+02
2.459189418159850149e+00,9.175597565769891162e+00,4.902716718901778847e+00,-6.416038262281011095e-02,-3.368820623153318539e-01,-9.393582497598365055e-01,2.174164225169566009e+02
2.612700429759567733e+00,9.176147371691572019e+00,4.930184512666622609e+00,-1.471693253188965655e-01,-2.737022440352824271e-01,-9.504884382754119621e-01,2.186943927015487361e+02
2.764416786925353975e+00,9.157721417136423625e+00,4.955636923937706051e+00,-2.276859833399830779e-01,-2.082429683556238365e-01,-9.512065806757981079e-01,2.199723628861408713e+02
2.912002902412584415e+00,9.120214436428675242e+00,4.978834005489579440e+00,-3.033318497654384771e-01,-1.427060394152233069e-01,-9.421384055606151220e-01,2.212503330707330065e+02
3.053109863864205575e+00,9.063477427770097350e+00,4.999528981906023795e+00,-3.723686409364443395e-01,-7.910118419413635082e-02,-9.247078446224140658e-01,2.225283032553251417e+02
3.185368026391726559e+00,8.987317303954140968e+00,5.017467502443803795e+00,-4.338303727946221100e-01,-1.899615121101045148e-02,-9.007942905458757865e-01,2.238062734399172768e+02
3.248728290069499813e+00,8.937474626859909677e+00,5.025273599138471603e+00,-4.874681035733490209e-01,3.658680206161304960e-02,-8.723739186343817398e-01,2.244730634665961304e+02
3.357438144543569258e+00,8.822402092245289040e+00,5.037045022862454147e+00,-5.335785543036569711e-01,8.714309002340615840e-02,-8.412490762243913789e-01,2.257510336511882656e+02
3.451607880595783495e+00,8.687816634374817326e+00,5.045412769432366495e+00,-5.261111744570694526e-01,7.937296001046523219e-02,-8.467035876448026910e-01,2.270290038357804008e+02
3.530419394475578621e+00,8.534959482188755331e+00,5.050234961423518243e+00,-5.185592721813436778e-01,7.158327149036984582e-02,-8.520399735208971093e-01,2.283069740203725360e+02
3.593581408396619992e+00,8.365561213488522441e+00,5.051408919728088698e+00,-5.109259488975004260e-01,6.377740191462953623e-02,-8.572555731800222123e-01,2.295849442049646711e+02
3.640796818742237040e+00,8.181317197908724026e+00,5.048825407063162629e+00,-5.032144201264296957e-01,5.595875748229206526e-02,-8.623478792447160091e-01,2.308629143895568063e+02
3.671793137122895345e+00,7.983905763490280805e+00,5.042372784380598105e+00,-4.954280087486381268e-01,4.813076573003308156e-02,-8.673145435985724072e-01,2.321408845741489415e+02
3.686290060089596921e+00,7.774980083144794385e+00,5.031932185729737661e+00,-4.875701378560551302e-01,4.029686802782225796e-02,-8.721533827820515672e-01,2.334188547587410767e+02
3.683966940569805892e+00,7.556160243431387258e+00,5.017372671240854842e+00,-4.796443232317089689e-01,3.246051201844812190e-02,-8.768623827893953226e-01,2.346968249433332119e+02
3.664461629537614673e+00,7.329038399961763872e+00,4.998550830691823599e+00,-4.716541654957944196e-01,2.462514403962601933e-02,-8.814397032420840938e-01,2.359747951279253471e+02
3.644348258757937220e+00,7.201001309351090285e+00,4.985853102666686354e+00,-4.636033419589984383e-01,1.679420156749854981e-02,-8.858836809187525807e-01,2.366741740447416475e+02
3.590304744466790154e+00,6.961418534182770124e+00,4.958264710232139549e+00,-4.404048938319254369e-01,1.374920970924413573e-02,-8.976939838949916650e-01,2.379521442293337827e+02
3.519128103624896475e+00,6.717377761093199062e+00,4.926468195358662427e+00,-4.167883860498418636e-01,1.067983034611904615e-02,-9.089408025156237025e-01,2.392301144139259179e+02
3.431454681252181338e+00,6.470091356194705767e+00,4.890736708835457414e+00,-3.927985659436995514e-01,7.592257428717001828e-03,-9.195931949616141798e-01,2.405080845985180531e+02
3.327877897713912514e+00,6.220758150422838639e+00,4.851331488004844594e+00,-3.684829997455431605e-01,4.492864628183899922e-03,-9.296236297910884794e-01,2.417860547831101883e+02
3.208949983953149232e+00,5.970567325165393235e+00,4.808502647678581710e+00,-3.438916092762927534e-01,1.388140476245577643e-03,-9.390083248488162448e-01,2.430640249677023235e+02
3.075183614654639186e+00,5.720702258532229578e+00,4.762489937380204097e+00,-3.190761625237164556e-01,-1.715379188440744728e-03,-9.477275241246182480e-01,2.443419951522944586e+02
2.927053444107250879e+00,5.472344344520533532e+00,4.713523467205979145e+00,-2.940897301497930050e-01,-4.811179837615323085e-03,-9.557657051647082680e-01,2.456199653368865938e+02
2.764997549309694769e+00,5.226676797219763415e+00,4.661824404501600405e+00,-2.689861211887012438e-01,-7.892836260159628511e-03,-9.631117119751101407e-01,2.468979355214787290e+02
2.589418784655514116e+00,4.984888452129135672e+00,4.607605643463732470e+00,-2.438193118393759407e-01,-1.095407831286297588e-02,-9.697588109125324651e-01,2.481759057060708642e+02
2.407472305760408826e+00,4.756281109539483687e+00,4.553073262007544031e+00,-1.629475368545722780e-01,2.924584989429744250e-02,-9.862011866231900070e-01,2.494095817549035985e+02
2.207151330231493347e+00,4.525367872143916337e+00,4.494639126896310621e+00,-7.672703114546561287e-02,7.110760540408340991e-02,-9.945132835439151053e-01,2.506875519394957337e+02
1.996253316855651105e+00,4.301216333705500716e+00,4.434628845424846588e+00,1.278686493741551002e-02,1.135204131673788197e-01,-9.934533768020419320e-01,2.519655221240878689e+02
1.776037474966544627e+00,4.084688971598836815e+00,4.373407492229128835e+00,1.030649654540228832e-01,1.552249860285781213e-01,-9.824880745374922064e-01,2.532434923086800040e+02
1.670333568861230411e+00,3.988084026828634610e+00,4.344583392682691780e+00,1.914363514639869368e-01,1.949874751084585134e-01,-9.619417902809842547e-01,2.538361496405822777e+02
1.436646937183740258e+00,3.788964389693566748e+00,4.281559950760902566e+00,2.754697097235017655e-01,2.317756317666246624e-01,-9.329504250194816661e-01,2.551141198251744129e+02
1.199821710841934008e+00,3.600575748733612524e+00,4.217582877735479130e+00,3.532833449224508371e-01,2.648814910786053689e-01,-8.972339014350602104e-01,2.563920900097665481e+02
9.631045422548999424e-01,3.424345330696994427e+00,4.152545406129872774e+00,9.302570451933813711e-01,-3.669084761464080913e-01,0.000000000000000000e+00,2.576700601943586548e+02
7.297510434581251371e-01,3.261717651582920929e+00,4.086337558020623817e+00,9.313388394217017030e-01,-3.640868325526815386e-01,-6.981729470072910171e-03,2.589480303789507616e+02
5.030358042363978210e-01,3.114158810260737820e+00,4.018845812071032420e+00,9.323684362544500948e-01,-3.612392557372937629e-01,-1.397494868675608348e-02,2.602260005635428683e+02
2.862624937591046748e-01,2.983160787065614716e+00,3.949952759836740324e+00,9.333453934866903223e-01,-3.583661262919718982e-01,-2.097846475940435759e-02,2.615039707481349751e+02
8.277407650745417789e-02,2.870245759804560759e+00,3.879536750303645753e+00,9.342692944148855982e-01,-3.554678400487374934e-01,-2.799107365924220422e-02,2.627819409327270819e+02
-1.040370489584437202e-01,2.777356940851044342e+00,3.808239894961091387e+00,9.351397484039952746e-01,-3.525448078421741238e-01,-3.501156121107692337e-02,2.640599111173191886e+02
-2.719007071574707224e-01,2.706094362068760528e+00,3.737479260600010900e+00,9.359563914206360247e-01,-3.495974552479492181e-01,-4.203870410728085399e-02,2.653378813019112954e+02
-4.208512370819045834e-01,2.656186086469757512e+00,3.667923661586246276e+00,9.367188865308571089e-01,-3.466262222979011320e-01,-4.907127094214468882e-02,2.666158514865034022e+02
-5.520542833377569680e-01,2.626271046974725465e+00,3.599486435986240185e+00,9.374269243611746960e-01,-3.436315631720760488e-01,-5.610802326462765999e-02,2.678938216710955089e+02
-6.666294877769025629e-01,2.615055634384501282e+00,3.532084307811956148e+00,9.380802235215975893e-01,-3.406139458681656240e-01,-6.314771664745900959e-02,2.691717918556876157e+02
-7.656535024237156595e-01,2.621309509878241517e+00,3.465637134896495386e+00,9.386785309894815077e-01,-3.375738518488685669e-01,-7.018910177048245935e-02,2.704497620402797224e+02
-8.119402609556715111e-01,2.633637622444882531e+00,3.429729683118693639e+00,9.392216224531511060e-01,-3.345117756677637999e-01,-7.723092551607826928e-02,2.711498248378837275e+02
-8.826438640043144934e-01,2.671514758547629764e+00,3.365045099949409035e+00,9.397093026143410466e-01,-3.314282245743534472e-01,-8.427193207444966250e-02,2.724277950224758342e+02
-9.402566327898199683e-01,2.723976139749516800e+00,3.301174713150554663e+00,9.401414054486199046e-01,-3.283237180989908577e-01,-9.131086405651914206e-02,2.737057652070679410e+02
-9.857061022653436089e-01,2.790005214844063719e+00,3.238049074017713025e+00,9.405177944230805887e-01,-3.251987876184788684e-01,-9.834646361214791077e-02,2.749837353916600478e+02
-1.019888783010065358e+00,2.868632032910749530e+00,3.175600988612292674e+00,9.408383626707019776e-01,-3.220539759031759708e-01,-1.053774735513679089e-01,2.762617055762521545e+02
-1.043672617512465761e+00,2.958930124945205797e+00,3.113765314326974121e+00,9.411030331209104816e-01,-3.188898366465081069e-01,-1.124026384662998729e-01,2.775396757608442613e+02
-1.057899367844940874e+00,3.060013531807864506e+00,3.052478762661497758e+00,9.413117585859970271e-01,-3.157069339778355022e-01,-1.194207058514244746e-01,2.788176459454363680e+02
-1.063386941141381881e+00,3.171033969091337834e+00,2.991679707611784700e+00,9.414645218031721940e-01,-3.125058419596732362e-01,-1.264304272198751022e-01,2.800956161300284748e+02
-1.060931659155309292e+00,3.291178119960169290e+00,2.931307999092619188e+00,9.415613354321750172e-01,-3.092871440703119923e-01,-1.334305592134319984e-01,2.813735863146205816e+02
-1.051310478058641973e+00,3.419665047441754258e+00,2.871304780828964898e+00,9.416022420084735334e-01,-3.060514326729248946e-01,-1.404198647039159586e-01,2.826515564992126883e+02
-1.035283164539727130e+00,3.555743718045627944e+00,2.811612312164365690e+00,9.415873138522301566e-01,-3.027993084722865880e-01,-1.473971138837084638e-01,2.839295266838047951e+02
-1.013594434173983094e+00,3.698690628962010063e+00,2.752173793246932565e+00,9.415166529333307555e-01,-2.995313799602628002e-01,-1.543610853431608143e-01,2.852074968683969018e+02
-9.869760579712558712e-01,3.847807531440175843e+00,2.692933193063721475e+00,9.413903906929038667e-01,-2.962482628512587701e-01,-1.613105671327000334e-01,2.864854670529890086e+02
-9.561489429505534154e-01,4.002419243274021099e+00,2.633835079802855361e+00,9.412086878218773878e-01,-2.929505795088393483e-01,-1.682443578074908352e-01,2.877634372375811154e+02
-9.218251925554737936e-01,4.161871543627214898e+00,2.574824453029623150e+00,9.409717339972485384e-01,-2.896389583647527299e-01,-1.751612674525744318e-01,2.890414074221732221e+02
-8.847101527020889700e-01,4.325529143714448743e+00,2.515846577168448395e+00,9.406797475768546857e-01,-2.863140333316070985e-01,-1.820601186864716226e-01,2.903193776067653289e+02
-8.627023525642757429e-01,4.419547347475708321e+00,2.482697155328454919e+00,9.403329752535514174e-01,-2.829764432104570071e-01,-1.889397476413124666e-01,2.910376362198679203e+02
-8.220600986039845459e-01,4.589921444892806512e+00,2.423691339559848501e+00,9.399316916698121638e-01,-2.796268310945650981e-01,-1.957990049176363268e-01,2.923156064044600271e+02
-7.804402897926689953e-01,4.762825643059874992e+00,2.364622225007234402e+00,9.394761989938728020e-01,-2.762658437706040915e-01,-2.026367565120931469e-01,2.935935765890521338e+02
-7.385398123077268062e-01,4.937680545319581782e+00,2.305434898965488255e+00,9.389668264586384927e-01,-2.728941311185594243e-01,-2.094518847163698849e-01,2.948715467736442406e+02
-6.970581531044558465e-01,5.113916866123011218e+00,2.246074090823412472e+00,9.384039298646729144e-01,-2.695123455115875921e-01,-2.162432889857639207e-01,2.961495169582363474e+02
-6.560658189690884434e-01,5.290840328835565209e+00,2.186549638815185048e+00,9.524800022707161640e-01,-2.626035001453421169e-01,-1.543413327200194030e-01,2.974274871428284541e+02
-6.143719350573405569e-01,5.467491111587831298e+00,2.127002153893842618e+00,9.634537732682215694e-01,-2.537925449110885467e-01,-8.570980645631670614e-02,2.987054573274205609e+02
-5.701559034322135622e-01,5.642766745994767241e+00,2.067637811354896105e+00,9.700302719146319808e-01,-2.427624273070689842e-01,-1.037667852471418559e-02,2.999834275120126676e+02
-5.215961283835864881e-01,5.815549645694155778e+00,2.008663340961014843e+00,9.707651767530364184e-01,-2.292350232876288751e-01,7.117777533729401085e-02,3.012613976966047744e+02
-4.668645772736325639e-01,5.984703697229846853e+00,1.950286652832622369e+00,9.642040427429201532e-01,-2.130274099522135312e-01,1.578920091938175174e-01,3.025393678811968812e+02
-4.041213425324012842e-01,6.149070762120405043e+00,1.892717466912158919e+00,9.490972053554884713e-01,-1.941159833595308692e-01,2.480594279417011327e-01,3.038173380657889879e+02
-3.907130237780658266e-01,6.178996260634708193e+00,1.882068968584726276e+00,9.246588919143567953e-01,-1.726909252031517406e-01,3.393873568007408359e-01,3.040577019408814863e+02
-3.097810716362719430e-01,6.332087427524784040e+00,1.826546805565638198e+00,8.907991188280647288e-01,-1.491776830995513448e-01,4.292120091052827324e-01,3.053356721254735930e+02
-2.167683867881847193e-01,6.477657588366551700e+00,1.772329335474154721e+00,8.482381757841706005e-01,-1.242072994463866015e-01,5.148441938165160270e-01,3.066136423100656998e+02
-1.097423944298238085e-01,6.614441325524950344e+00,1.719638872377525107e+00,7.984418839447467997e-01,-9.853566708337117841e-02,5.939539378396263558e-01,3.078916124946578066e+02
1.089608497800487533e-02,6.741139615079095648e+00,1.669860063513711967e+00,7.433869479133152769e-01,-7.293433160277582039e-02,6.648732427657038091e-01,3.091695826792499133e+02
1.400441453563577854e-01,6.856930511761996527e+00,1.626889488008529616e+00,6.852372772920491961e-01,-4.808744329216970564e-02,7.267306733632491467e-01,3.104475528638420201e+02
2.702544828265202037e-01,6.961981310303569259e+00,1.596177440568159467e+00,6.260377610831134865e-01,-2.452312067150555150e-02,7.794070427257976386e-01,3.117255230484341268e+02
3.951026532027099303e-01,7.056458628507969344e+00,1.582698512769989740e+00,5.675025885024282957e-01,-2.589076224456869808e-03,8.233675417013640585e-01,3.130034932330262336e+02
5.101811553797328536e-01,7.139525709974669176e+00,1.590078444170246685e+00,5.109208201634896085e-01,1.753506822807842508e-02,8.594489146573540683e-01,3.142814634176183404e+02
6.120633308426475239e-01,7.209831805197279841e+00,1.621305612812955932e+00,4.571583152755001045e-01,3.580450173969685485e-02,8.886643418240876002e-01,3.155594336022104471e+02
6.972742145334911434e-01,7.266008246947106564e+00,1.679440596078390024e+00,4.674255469897529713e-01,3.664442590737702898e-02,8.832726329232944984e-01,3.168374037868025539e+02
7.642819274116201544e-01,7.307289776679658289e+00,1.765705423155357501e+00,4.786915249820763441e-01,3.756630422186687385e-02,8.771791132359708643e-01,3.181153739713946607e+02
7.871291689286624704e-01,7.319393701515581441e+00,1.816259031749478892e+00,4.911019955848462959e-01,3.858214439536268581e-02,8.702472338746254366e-01,3.186905039512754456e+02
8.247980124136644609e-01,7.332637385572418509e+00,1.951446681618639323e+00,5.048304489435184728e-01,3.970625346988645998e-02,8.623048366180434687e-01,3.199684741358675524e+02
8.529155062363136253e-01,7.332847750800551623e+00,2.105873935689434706e+00,5.200842606616700170e-01,4.095575220651842541e-02,8.531324564059219462e-01,3.212464443204596591e+02
8.757908712935420503e-01,7.320915041147479485e+00,2.275294344432881033e+00,5.371121301140598936e-01,4.235120112850310897e-02,8.424469926632239813e-01,3.225244145050517659e+02
8.977225458061673935e-01,7.297666819806768679e+00,2.455506851236509469e+00,5.562128489155243605e-01,4.391734393175677348e-02,8.298786258262443871e-01,3.238023846896438727e+02
9.230108898098726700e-01,7.263870503717975602e+00,2.642343073381760998e+00,5.777450906542772602e-01,4.568394773846962131e-02,8.149377811489105783e-01,3.250803548742359794e+02
9.559709099239938057e-01,7.220235639420240048e+00,2.831654681943747143e+00,6.021370899354018258e-01,4.768665523959156327e-02,7.969673191770075826e-01,3.263583250588280862e+02
1.000945041561689397e+00,7.167415926923059288e+00,3.019300842407273144e+00,6.298932171442630512e-01,4.996761621893533456e-02,7.750727529239093139e-01,3.276362952434201929e+02
1.062316025950285514e+00,7.106010997269907037e+00,3.201135677979221050e+00,6.615903807967090655e-01,5.257534022167337229e-02,7.480200543019155379e-01,3.289142654280122997e+02
1.144035394236748715e+00,7.036558793265389689e+00,3.373149814263727730e+00,6.978484849083319563e-01,5.556251155329294811e-02,7.140870391073036449e-01,3.301922356126044065e+02
1.248040397761861486e+00,6.959451500396101054e+00,3.532343538050157772e+00,7.392411199241957220e-01,5.897904622405665542e-02,6.708532169705391235e-01,3.314702057971965132e+02
1.373633244075457061e+00,6.874880142426889940e+00,3.677294819692997763e+00,7.860772503379288567e-01,6.285478361701597738e-02,6.149242495442990286e-01,3.327481759817886200e+02
1.519072546131375434e+00,6.782939274758375880e+00,3.807269710383933692e+00,8.379233815727445966e-01,6.716116348578755890e-02,5.416399031948551102e-01,3.340261461663807268e+02
1.682677811366682930e+00,6.683711411380954814e+00,3.921488919250434968e+00,8.926628755100053381e-01,7.173510264660104552e-02,4.449798486836122891e-01,3.353041163509728335e+02
1.862824258096346330e+00,6.577266924695273076e+00,4.019125454113628315e+00,9.449341993285840235e-01,7.615138454384831612e-02,3.182771207160561278e-01,3.365820865355649403e+02
2.021418061307336256e+00,6.484656353191420308e+00,4.085422569815968963e+00,9.843985808906006163e-01,7.957839906973344923e-02,1.569290041454093898e-01,3.376235774995491283e+02
2.227222350351099500e+00,6.363544402492468777e+00,4.153275068171376816e+00,9.960795768904302516e-01,8.079778086016678462e-02,-3.601659492309074867e-02,3.389015476841412351e+02
2.440124554474012886e+00,6.234446902683281166e+00,4.211977046014601100e+00,9.664848151688157918e-01,7.869290617138385846e-02,-2.443655633807716165e-01,3.401795178687333419e+02
2.655872953305213446e+00,6.096884057437743643e+00,4.266081206389349845e+00,8.940848510767304136e-01,7.310275606695046391e-02,-4.418916904972490789e-01,3.414574880533254486e+02
2.870221602372420300e+00,5.950375971784810147e+00,4.320126332124430313e+00,7.926199974693282080e-01,6.510960231748667837e-02,-6.062295599010170122e-01,3.427354582379175554e+02
3.078917414729237301e+00,5.794441201918492546e+00,4.378651027322113976e+00,6.816233013077882541e-01,5.628580931187748132e-02,-7.295351826912661597e-01,3.440134284225096621e+02
3.278616298206558977e+00,5.629009079714433206e+00,4.444678666618044893e+00,5.757221109494494726e-01,4.782340485239577194e-02,-8.162456572088047091e-01,3.452913986071017689e+02
3.467805350582283452e+00,5.454825891617095301e+00,4.518197756972563539e+00,4.818448035170955213e-01,4.029670071890190802e-02,-8.753295158023308709e-01,3.465693687916938757e+02
3.645874053959115457e+00,5.273032424897809101e+00,4.597690694574783521e+00,4.015617178515317187e-01,3.384488563050344623e-02,-9.152063758916810787e-01,3.478473389762859824e+02
3.812184868852924069e+00,5.084750160432137456e+00,4.681657961881565022e+00,3.338915861278922148e-01,2.839732026619607580e-02,-9.421836343912471934e-01,3.491253091608780892e+02
3.966071190033802818e+00,4.891084839746078217e+00,4.768613587711548973e+00,2.770138391405239653e-01,2.381250630684383918e-02,-9.605708185594722393e-01,3.504032793454701959e+02
4.106835235271408813e+00,4.693129996845790686e+00,4.857080648352071428e+00,2.290523791157891842e-01,1.994237149482576757e-02,-9.732097972382723894e-01,3.516812495300623027e+02
4.233745860384772186e+00,4.491970465956319103e+00,4.945586796058305090e+00,1.883583082280420873e-01,1.665587290788390212e-02,-9.819591282834261303e-01,3.529592197146544095e+02
4.346036293840158216e+00,4.288685876262253949e+00,5.032659801406810907e+00,1.535719446229066587e-01,1.384451346263656027e-02,-9.880404785593157602e-01,3.542371898992465162e+02
4.442901783962758699e+00,4.084354144745420356e+00,5.116823096007325766e+00,1.236021507652313167e-01,1.142098743933371574e-02,-9.922661283003263444e-01,3.555151600838386230e+02
4.523497151628522950e+00,3.880054978250699005e+00,5.196591302077913532e+00,9.758211579789675960e-02,9.315800615511965130e-03,-9.951838757412109215e-01,3.567931302684307298e+02
4.586934241081899621e+00,3.676873395982811932e+00,5.270465735348804692e+00,7.482423011038476235e-02,7.473741668960628103e-03,-9.971687308444112663e-01,3.580711004530228365e+02
4.632279261283196448e+00,3.475903283743746019e+00,5.336929867679918615e+00,5.478131914692612597e-02,5.850821960926936086e-03,-9.984812341526024815e-01,3.593490706376149433e+02
4.658550009924682378e+00,3.278250991362794409e+00,5.394444735654939649e+00,3.701552768127653464e-02,4.411806096260130830e-03,-9.993049517927174996e-01,3.606270408222070500e+02
4.664712971966761046e+00,3.085038984950386531e+00,5.441444281250940485e+00,2.117408800434060143e-02,3.128282082488653953e-03,-9.997709096830117437e-01,3.619050110067991568e+02
4.649680284234515959e+00,2.897409565822404609e+00,5.476330610477155858e+00,6.970690671074211697e-03,1.977173969260719467e-03,-9.999737497827947408e-01,3.631829811913912636e+02
4.612306557279370445e+00,2.716528668195744789e+00,5.497469155627996429e+00,-5.828781438783002013e-03,9.396006927703200217e-04,-9.999825710768548426e-01,3.644609513759833703e+02
4.575115005090364839e+00,2.610232607099236546e+00,5.501099893742884106e+00,-1.741718878752641919e-02,0.000000000000000000e+00,-9.998483092623299262e-01,3.652457578596797703e+02
4.490973959079529010e+00,2.445732973143506239e+00,5.490725278839646784e+00,0.000000000000000000e+00,2.371239420780988857e-02,-9.997188216498343882e-01,3.665237280442718770e+02
4.383662292855921905e+00,2.290306030938219273e+00,5.463419271222121232e+00,2.029129961862974427e-03,1.897092502790258955e-02,-9.998179767513601934e-01,3.678016982288639838e+02
4.378241951327377812e+00,2.283608740070759424e+00,5.461632202184608431e+00,4.058367929696648016e-03,1.422857243811643038e-02,-9.998905326965149554e-01,3.678588841499109776e+02
4.244391294792977831e+00,2.139476118159225670e+00,5.409178987435955932e+00,6.087551893453316612e-03,9.485714957043252932e-03,-9.999364794444186577e-01,3.691368543345030844e+02
4.091633477087095905e+00,2.003582696960460208e+00,5.340206544867634797e+00,8.116519843085624741e-03,4.742731254424300234e-03,-9.999558133267114624e-01,3.704148245190951911e+02
3.922972666148324627e+00,1.874867565568816730e+00,5.255528280948154496e+00,1.014510983321466504e-02,0.000000000000000000e+00,-9.999485370490184266e-01,3.716927947036872979e+02
3.741358302301406535e+00,1.752273661974066421e+00,5.155910051544906558e+00,8.147234095248104269e-02,2.794541919619677670e-02,-9.962837503470943767e-01,3.729707648882794047e+02
3.549585054650008509e+00,1.635111618529816679e+00,5.042099950047337131e+00,1.628374184608558095e-01,5.985245612991220432e-02,-9.848358536549230990e-01,3.742487350728715114e+02
3.350195233660813177e+00,1.523425536708077122e+00,4.914858041712444781e+00,2.541789062525343645e-01,9.570974658122140266e-02,-9.624098544932007115e-01,3.755267052574636182e+02
3.209089740779108801e+00,1.450403840719255655e+00,4.818385645456157107e+00,3.540847339900428103e-01,1.349785815677417844e-01,-9.254214086961470853e-01,3.764077066063042025e+02
3.001200384771914642e+00,1.350628937866910961e+00,4.666387901913272351e+00,4.592306635503636825e-01,1.763700953547536754e-01,-8.706324064262987994e-01,3.776856767908963093e+02
2.792285513307427358e+00,1.257525606467452040e+00,4.502956356194530940e+00,5.642445522397235846e-01,2.177872904746366578e-01,-7.963647288620396836e-01,3.789636469754884160e+02
2.584734528554750277e+00,1.171523016515993554e+00,4.328728301571580062e+00,6.624636293387747843e-01,2.566165397841041473e-01,-7.037683506044669635e-01,3.802416171600805228e+02
2.380943582539073677e+00,1.093057463065384205e+00,4.144308344042627823e+00,7.476131032465707094e-01,2.903830562964831996e-01,-5.972874755676246261e-01,3.815195873446726296e+02
2.183322911242161268e+00,1.022573625819673815e+00,3.950270232826300632e+00,8.156231287233823846e-01,3.174661764504446704e-01,-4.837087333317600657e-01,3.827975575292647363e+02
1.994304219038943060e+00,9.605258099300212349e-01,3.747158597435425342e+00,8.654952996423312950e-01,3.374464609405981030e-01,-3.701996384326926570e-01,3.840755277138568431e+02
1.816348135825758048e+00,9.073791713817476179e-01,3.535490596593505508e+00,8.988504127360703588e-01,3.509357461668095035e-01,-2.625110237428907034e-01,3.853534978984489499e+02
1.651882655722517690e+00,8.633650645637279686e-01,3.315810673229800720e+00,9.187395284203067058e-01,3.591147465740433531e-01,-1.641775798064191438e-01,3.866314680830410566e+02
1.502445705765444117e+00,8.281192144826821089e-01,3.089307170246391010e+00,9.285153260770037109e-01,3.632904599187893324e-01,-7.667679552582991331e-02,3.879094382676331634e+02
1.368005293853599369e+00,8.026777006344766319e-01,2.858045324962104505e+00,9.311533018730524525e-01,3.646279292838019437e-01,-3.996396863834392215e-05,3.891874084522252701e+02
1.247878973306964401e+00,7.917133898618852195e-01,2.624079362071964905e+00,9.308979369907459667e-01,3.629439757581338633e-01,4.123956070634507420e-02,3.904653786368173769e+02
1.141501326237413849e+00,8.010417803839657847e-01,2.389230991699441642e+00,9.288524738279777537e-01,3.604440001714028785e-01,8.551727664094391224e-02,3.917433488214094837e+02
1.048373353694330712e+00,8.334978734887972251e-01,2.155083980737746430e+00,9.246215043093691799e-01,3.569713620120563702e-01,1.328402065337776772e-01,3.930213190060015904e+02
1.032202622066057396e+00,8.441986199425409731e-01,2.108738393768905262e+00,9.177650556426599771e-01,3.523550382853370966e-01,1.831754067449119783e-01,3.932759178031221268e+02
9.627676385140629955e-01,9.177508373024364507e-01,1.878040005708267346e+00,9.078101132849238919e-01,3.464151356740626797e-01,2.363839080680710525e-01,3.945538879877142335e+02
9.057239080194728897e-01,1.010763010979311982e+00,1.649844046890900362e+00,8.942709994385810157e-01,3.389718887229693500e-01,2.921941789610197904e-01,3.958318581723063403e+02
8.606957189116127838e-01,1.121027468917042080e+00,1.424774289661616233e+00,8.766800693719327686e-01,3.298585646341720135e-01,3.501790731947112545e-01,3.971098283568984471e+02
8.273308004531360060e-01,1.246391009759869384e+00,1.203463971161223389e+00,8.546286822099583569e-01,3.189380453757129641e-01,4.097417952271763530e-01,3.983877985414905538e+02
8.052995583810088620e-01,1.384748239183053231e+00,9.865577105039785577e-01,8.278158848811240089e-01,3.061218376875568525e-01,4.701173058176807418e-01,3.996657687260826606e+02
7.942943398690602841e-01,1.534035055600345032e+00,7.747134604143609549e-01,7.960990167687949093e-01,2.913890212065067820e-01,5.303949413598059159e-01,4.009437389106747673e+02
7.940287265135649308e-01,1.692222265336184694e+00,5.686044992319535529e-01,7.595374027581630605e-01,2.748015657769941056e-01,5.895651221518251051e-01,4.022217090952668741e+02
8.042368539100093194e-01,1.857309307751315863e+00,3.689214693146214419e-01,7.184188659060579685e-01,2.565120840104224142e-01,6.465878779152013367e-01,4.034996792798589809e+02
8.246727563538599481e-01,2.027318071151209100e+00,1.763744680116856034e-01,6.732603133448280541e-01,2.367609195958530199e-01,7.004747086276207346e-01,4.047776494644510876e+02
8.551097351604081132e-01,2.200286780589737035e+00,-8.304802460819727880e-03,6.247785339353203460e-01,2.158615771482485790e-01,7.503702839563294313e-01,4.060556196490431944e+02
8.953397490581278539e-01,2.374263938908218741e+00,-1.843608197340095289e-01,5.738343928498524926e-01,1.941763143852996698e-01,7.956190347863619783e-01,4.073335898336353011e+02
9.451728250656152852e-01,2.547302302521134099e+00,-3.510119538830401842e-01,5.213602714831009344e-01,1.720862040633258927e-01,8.358048849403445502e-01,4.086115600182274079e+02
1.004436488214221823e+00,2.717452873574426331e+00,-5.074481009822040534e-01,4.682842521242254197e-01,1.499611422931098337e-01,8.707591601669204540e-01,4.098895302028195147e+02
1.072975208425748672e+00,2.882758890160912468e+00,-6.528282304531823899e-01,4.154639399050767401e-01,1.281347473846305152e-01,9.005393945581879889e-01,4.111675003874116214e+02
1.150649862795095180e+00,3.041249796278166162e+00,-7.862778387806069746e-01,3.636386831732697500e-01,1.068872551735368520e-01,9.253874987168767552e-01,4.124454705720037282e+02
1.237337211465917353e+00,3.190935173175299511e+00,-9.068863018875428228e-01,3.134033651934715059e-01,8.643724121989679321e-02,9.456780287263212292e-01,4.137234407565958350e+02
1.332929385219632668e+00,3.329798613631025361e+00,-1.013704118152830569e+00,2.652020273447760479e-01,6.694111483547955654e-02,9.618662962370619907e-01,4.150014109411879417e+02
1.343486322530293986e+00,3.343051121952217652e+00,-1.023331020945837722e+00,2.193365849725853745e-01,4.849826860724140709e-02,9.744431129802620939e-01,4.151328857444120217e+02
1.453064587169359934e+00,3.460657017489024767e+00,-1.103083546360480005e+00,1.759849595376586917e-01,3.115952989154406605e-02,9.838995770471021807e-01,4.164108559290041285e+02
1.543631417019556418e+00,3.539602020809643701e+00,-1.152254168419821978e+00,1.352235110462424728e-01,1.493688700409722021e-02,9.907025242054012804e-01,4.173911572540871475e+02
1.669687919209786209e+00,3.627133848989980702e+00,-1.200577350702289658e+00,9.704995188563640685e-02,-1.869611885047947012e-04,9.952794943554849061e-01,4.186691274386792543e+02
1.803117276457538720e+00,3.698960731549525871e+00,-1.233306501678189226e+00,4.854703703705579021e-02,-1.234107171258618798e-04,9.988208898319645979e-01,4.199470976232713610e+02
1.943154009113523761e+00,3.755129515070388280e+00,-1.250875959418035421e+00,-7.069497921097834560e-05,-5.956837023416438096e-05,9.999999957269145590e-01,4.212250678078634678e+02
2.085705232010306442e+00,3.795419647885966530e+00,-1.254116816982599580e+00,-1.519402146944220655e-01,-4.635213606819113763e-05,9.883896847954719567e-01,4.224752775292351430e+02
2.236109338473467822e+00,3.822576914521497837e+00,-1.244286007343811784e+00,-3.077525962622925104e-01,-3.130273790215861942e-05,9.514664148113463060e-01,4.237532477138272498e+02
2.390227883955668098e+00,3.836625938279433878e+00,-1.222390209458558585e+00,-4.556739453497520298e-01,-1.545071185062794929e-05,8.901467605348382106e-01,4.250312178984193565e+02
2.547099479834842750e+00,3.838464703789077337e+00,-1.189478439904446017e+00,-5.855752083478741321e-01,-0.000000000000000000e+00,8.106180823102477895e-01,4.263091880830114633e+02
2.705765006093243663e+00,3.829106520345826770e+00,-1.146445920721514078e+00,-5.573251126933630450e-01,0.000000000000000000e+00,8.302943566960636623e-01,4.275871582676035700e+02
2.865254284801624252e+00,3.809829692706292903e+00,-1.093916346927429339e+00,-5.278367672232628927e-01,0.000000000000000000e+00,8.493458348442611827e-01,4.288651284521956768e+02
3.024596139488635149e+00,3.782034881237933188e+00,-1.032364217641194903e+00,-4.971671850430177120e-01,0.000000000000000000e+00,8.676547643598816473e-01,4.301430986367877836e+02
3.182827301338429837e+00,3.747102752483759236e+00,-9.622367155042935716e-01,-4.653902759985741877e-01,0.000000000000000000e+00,8.851055818409298004e-01,4.314210688213798903e+02
3.338989371985347177e+00,3.706398124820900808e+00,-8.839550605598113231e-01,-4.325966125663832096e-01,0.000000000000000000e+00,9.015875835414385309e-01,4.326990390059719971e+02
3.492125825912045123e+00,3.661274084217536195e+00,-7.979157855282328349e-01,-3.988926145716515936e-01,0.000000000000000000e+00,9.169976456023166689e-01,4.339770091905641038e+02
3.641279043191659515e+00,3.613076082350610285e+00,-7.044919363410734325e-01,-3.643991387878702803e-01,0.000000000000000000e+00,9.312428617984990220e-01,4.352549793751562106e+02
3.785487363481337741e+00,3.563146029348572608e+00,-6.040342015666128050e-01,-3.292494984455853757e-01,0.000000000000000000e+00,9.442429601396722383e-01,4.365329495597483174e+02
3.923782152312007110e+00,3.512826393461322638e+00,-4.968719741470444817e-01,-2.935869782162775499e-01,0.000000000000000000e+00,9.559323648783082383e-01,4.378109197443404241e+02
4.055184870830212951e+00,3.463464320033886601e+00,-3.833143486616001350e-01,-2.575619479218744790e-01,0.000000000000000000e+00,9.662617880174552143e-01,4.390888899289325309e+02
4.124316412238991703e+00,3.437126369806914106e+00,-3.164389739314759642e-01,-2.213287086371648615e-01,0.000000000000000000e+00,9.751992630908848936e-01,4.398031461463005485e+02
4.239467819908719903e+00,3.393325958867336567e+00,-1.909415884908266525e-01,-1.850422243237902498e-01,0.000000000000000000e+00,9.827305710200044953e-01,4.410811163308926552e+02
4.345056474217196651e+00,3.354031796739525007e+00,-5.983316878942249173e-02,-1.488548983624254918e-01,0.000000000000000000e+00,9.888590492246668306e-01,4.423590865154847620e+02
4.440033973266034550e+00,3.320646605579933741e+00,7.664969540868815656e-02,-1.129135468122695468e-01,0.000000000000000000e+00,9.936048162857673560e-01,4.436370567000768688e+02
4.523328144069846068e+00,3.294597392883991116e+00,2.182866858773181984e-01,-7.735670023649728055e-02,0.000000000000000000e+00,9.970034809009046262e-01,4.449150268846689755e+02
4.593839940878746475e+00,3.277339928065066577e+00,3.648730888967868236e-01,-4.231233634796861126e-02,0.000000000000000000e+00,9.991044320754344232e-01,4.461929970692610823e+02
4.650440288956785295e+00,3.270363324990373410e+00,5.162191754663539855e-01,-7.896110403326194946e-03,0.000000000000000000e+00,9.999688252343162942e-01,4.474709672538531890e+02
4.692340042974595171e+00,3.274418489878835103e+00,6.720410929837655756e-01,-8.075561605953350194e-03,0.000000000000000000e+00,9.999673921207372640e-01,4.487489374384452958e+02
4.719454772911158891e+00,3.288741369830324501e+00,8.318514719581420191e-01,-8.272102795227094171e-03,0.000000000000000000e+00,9.999657855723590449e-01,4.500269076230374026e+02
4.732022206491525829e+00,3.311822682960497310e+00,9.950664843595611320e-01,-8.488297347581932537e-03,0.000000000000000000e+00,9.999639737551243579e-01,4.513048778076295093e+02
4.730226834293709715e+00,3.342178420573329145e+00,1.161112609931840955e+00,-8.727248264547654566e-03,0.000000000000000000e+00,9.999619168437011707e-01,4.525828479922216161e+02
4.714200609989428692e+00,3.378345667641558858e+00,1.329424899106683489e+00,-8.992748056996405920e-03,0.000000000000000000e+00,9.999595644236737302e-01,4.538608181768137229e+02
4.684396620195346195e+00,3.418877736053708372e+00,1.499627670404091395e+00,-9.289481524618104641e-03,0.000000000000000000e+00,9.999568518356198865e-01,4.551387883614058296e+02
4.641963693326357721e+00,3.462336348070311765e+00,1.671715782273809348e+00,-9.623304569545984219e-03,0.000000000000000000e+00,9.999536949325011914e-01,4.564167585459979364e+02
4.588376763739767661e+00,3.507283830333700614e+00,1.845872209704995770e+00,-1.000163452202734206e-02,0.000000000000000000e+00,9.999499824025637196e-01,4.576947287305900431e+02
4.525068190115886679e+00,3.552278278760183650e+00,2.022286189658502042e+00,-1.043400772580841893e-02,0.000000000000000000e+00,9.999455642597639971e-01,4.589726989151821499e+02
4.453432073992924067e+00,3.595869431725155607e+00,2.201153793982875140e+00,-1.093289443078771482e-02,0.000000000000000000e+00,9.999402341237024761e-01,4.602506690997742567e+02
4.374829167824864307e+00,3.636959671229119451e+00,2.382560371647799435e+00,-1.151492105937745869e-02,0.000000000000000000e+00,9.999337010987259244e-01,4.615286392843663634e+02
4.320337335580339833e+00,3.661811193465004166e+00,2.501268910013680458e+00,-1.220275902514724765e-02,0.000000000000000000e+00,9.999255435642067091e-01,4.623543499909701495e+02
4.231379678270844380e+00,3.698649214903776183e+00,2.686822225755155280e+00,-1.302814656451034038e-02,0.000000000000000000e+00,9.999151300970966494e-01,4.636323201755622563e+02
4.139015714574157734e+00,3.735504574032067815e+00,2.873591259293996725e+00,-1.403692452863336722e-02,0.000000000000000000e+00,9.999014775215493422e-01,4.649102903601543630e+02
4.044560658803812103e+00,3.774140100069736548e+00,3.060942407656901398e+00,-1.529784765241444522e-02,0.000000000000000000e+00,9.998829810818881114e-01,4.661882605447464698e+02
3.949333948709139896e+00,3.816316093150612154e+00,3.248243830261550613e+00,-1.691894489821337347e-02,0.000000000000000000e+00,9.998568644078666967e-01,4.674662307293385766e+02
3.854663259084838867e+00,3.863795621386387769e+00,3.434863535975626103e+00,-1.908023043695061122e-02,0.000000000000000000e+00,9.998179558331971029e-01,4.687442009139306833e+02
3.761888572171993239e+00,3.918349802042455199e+00,3.620167469722677112e+00,-2.210563608536042501e-02,0.000000000000000000e+00,9.997556405708655225e-01,4.700221710985227901e+02
3.672366317174288408e+00,3.981763082449812696e+00,3.803517592837955430e+00,-2.664271572446988423e-02,0.000000000000000000e+00,9.996450198439569279e-01,4.713001412831148969e+02
3.587473591530124573e+00,4.055838536202542421e+00,3.984269951354426187e+00,-3.420108088432650267e-02,0.000000000000000000e+00,9.994149719042355606e-01,4.725781114677070036e+02
3.508177136335495661e+00,4.141711234579860346e+00,4.161969696452534784e+00,-4.930028504425758989e-02,0.000000000000000000e+00,9.987840016212489180e-01,4.738560816522991104e+02
3.434595552611887204e+00,4.239163076349350412e+00,4.336546677441591058e+00,-9.436579719316810777e-02,0.000000000000000000e+00,9.955375916157550575e-01,4.751340518368912171e+02
3.366426885797647373e+00,4.347319206967470429e+00,4.508118259292208663e+00,-9.999922070464400958e-01,0.000000000000000000e+00,-3.947891385228416254e-03,4.764120220214833239e+02
3.303380488218747857e+00,4.465338991520293455e+00,4.676792707888129286e+00,-8.650198379241537394e-02,0.000000000000000000e+00,-9.962516784427399852e-01,4.776899922060754307e+02
3.245176332660401730e+00,4.592413401364936476e+00,4.842669517807070889e+00,-4.141224016743304259e-02,0.000000000000000000e+00,-9.991421452247496449e-01,4.789679623906675374e+02
