3.196311983218460995e+00,1.053244317021175824e+01,6.314657294234552465e-01,-9.722325732834199985e-02,-2.342864986944589306e-02,9.949868022239097831e-01,9.593073151862162717e+01
3.059919163154772637e+00,1.052186693667991868e+01,6.325376906956389211e-01,0.000000000000000000e+00,-2.786260007479053613e-02,9.996117623943168162e-01,9.734659751108350179e+01
2.921750560642494055e+00,1.048667030343484718e+01,6.413799011045028253e-01,3.635831421559878457e-02,-3.851004846573266582e-02,9.985965397269143118e-01,9.876246350354537640e+01
2.817919056219625684e+00,1.044299678717472979e+01,6.532989100670922866e-01,7.610616115649726510e-02,-5.010421690147846135e-02,9.958400572796370920e-01,9.981677084378273435e+01
2.677542028209785041e+00,1.036254209201430143e+01,6.756488056805575182e-01,1.195039955391844488e-01,-6.270789842276805470e-02,9.908514089032575134e-01,1.012326368362446090e+02
2.536540767595375723e+00,1.026198101687450226e+01,7.034908237753529914e-01,1.667683451455313770e-01,-7.636804768461993853e-02,9.830342010074015757e-01,1.026485028287064836e+02
2.395263356964424162e+00,1.014302039809910383e+01,7.359345726890601513e-01,2.180338091520635790e-01,-9.110442882983263435e-02,9.716795979715903142e-01,1.040643688211683582e+02
2.254067994947312581e+00,1.000729614405237911e+01,7.721067856611779634e-01,2.733021509363841028e-01,-1.068947819761192908e-01,9.559704178894992133e-01,1.054802348136302328e+02
2.113323889048615456e+00,9.856379261985518170e+00,8.111480710517465775e-01,3.323793039661333548e-01,-1.236569709339307849e-01,9.350042523082093826e-01,1.068961008060921074e+02
1.973412229165012466e+00,9.691781636818593171e+00,8.522097141945963461e-01,3.948056646464285224e-01,-1.412299524674101303e-01,9.078450240482375255e-01,1.083119667985539820e+02
1.834727243862193324e+00,9.514961582832807352e+00,8.944505189835879611e-01,4.597920599151590348e-01,-1.593574325760812316e-01,8.736111665505051915e-01,1.097278327910158566e+02
1.697677341931413730e+00,9.327329188407038174e+00,9.370336774387090228e-01,5.261819903281345079e-01,-1.776803082277032264e-01,8.316022012491497417e-01,1.111436987834777312e+02
1.562686342197845413e+00,9.130251473142442009e+00,9.791236556026665649e-01,5.924663253935279483e-01,-1.957452581424086180e-01,7.814521400504653714e-01,1.125595647759396059e+02
1.430194795009677389e+00,8.925057375999124076e+00,1.019883084178844213e+00,6.568733182861811182e-01,-2.130353576683614580e-01,7.232796002285801773e-01,1.139754307684014805e+02
1.300661399296065168e+00,8.713042592422485910e+00,1.058469642338987438e+00,7.175392099570921944e-01,-2.290229844831522532e-01,6.577886854853781662e-01,1.153912967608633551e+02
1.174514980847503498e+00,8.495493312698389587e+00,1.094032584602567137e+00,7.727345335217262745e-01,-2.432364116174531576e-01,5.862741583648602983e-01,1.168071627533252297e+02
1.052106560133674984e+00,8.273710353942130169e+00,1.125709236365213028e+00,8.210916469854261379e-01,-2.553234556155213886e-01,5.105080217423710875e-01,1.182230287457871043e+02
9.337603251751770417e-01,8.048995486076639949e+00,1.152622122037837205e+00,8.617691990951499292e-01,-2.650938283729744604e-01,4.325264265330659441e-01,1.196388947382489789e+02
8.198243686873646352e-01,7.822637313218179678e+00,1.173876038105219566e+00,8.945093815089923961e-01,-2.725288243437649638e-01,3.543741049995120518e-01,1.210547607307108535e+02
7.106719232648534001e-01,7.595915913416154019e+00,1.188554721710409101e+00,9.195841172774744665e-01,-2.777591464032754254e-01,2.778757057396922248e-01,1.224706267231727281e+02
6.067027217700184938e-01,7.370107437999529942e+00,1.195717440869181081e+00,9.376634505664825925e-01,-2.810220415048422793e-01,2.044843897714647973e-01,1.238864927156346027e+02
5.083444878251115462e-01,7.146488686821641956e+00,1.194395493624648141e+00,9.496551508994253155e-01,-2.826125618805538919e-01,1.352229057427030146e-01,1.253023587080964774e+02
4.160545619005130979e-01,6.926341675572875722e+00,1.183588603114247295e+00,9.565575247590005770e-01,-2.828408557779515942e-01,7.070185379273884185e-02,1.267182247005583520e+02
3.303217638572114589e-01,6.711000871199365392e+00,1.162277490775192268e+00,9.593487566039831105e-01,-2.820015069360262694e-01,1.118540514250341081e-02,1.281340906930202266e+02
2.516687843856040829e-01,6.501900608715003749e+00,1.129342617432427476e+00,9.589179808440223551e-01,-2.803556394721469225e-01,-4.332460536677314178e-02,1.295499566854821012e+02
1.806547366627224704e-01,6.300537543193058809e+00,1.083449959979186472e+00,9.560319605484633998e-01,-2.781234176184622653e-01,-9.300674697078537001e-02,1.309658226779439758e+02
1.178775000556011310e-01,6.108433317849843114e+00,1.023123512677255098e+00,9.513270107117519636e-01,-2.754835964484323441e-01,-1.381510288708678869e-01,1.323816886704058504e+02
6.397615032762403453e-02,5.927139969657718943e+00,9.468335557471121433e-01,9.453161659134390327e-01,-2.725770919594939223e-01,-1.791063242926418664e-01,1.337975546628677250e+02
1.963358090133325573e-02,5.758245431445611295e+00,8.529909626719953675e-01,9.384039298646729144e-01,-2.695123455115875921e-01,-2.162432889857639207e-01,1.352134206553295996e+02
1.014255269541901837e-02,5.714786003578068652e+00,8.216718841387087302e-01,9.506438928123680521e-01,-2.711706895912309179e-01,-1.508066515945601649e-01,1.356085863369156641e+02
-1.283277064441756474e-02,5.572187339323818378e+00,6.921723846738988550e-01,9.595154509191978764e-01,-2.715903828001402509e-01,-7.462414768559605394e-02,1.370244523293775387e+02
-2.385429972470096832e-02,5.441998352257814808e+00,5.483357312342994616e-01,9.627383389907826494e-01,-2.700992773968340366e-01,1.346369143202885872e-02,1.384403183218394133e+02
-2.161745169772563008e-02,5.322930588755239611e+00,3.938360587966252546e-01,9.572664066272817962e-01,-2.658292368601779532e-01,1.139115603142504957e-01,1.398561843143012879e+02
-4.776327763360036990e-03,5.213728232315859579e+00,2.323078208957805590e-01,9.394478585714485241e-01,-2.577792470458482033e-01,2.258042976074529640e-01,1.412720503067631626e+02
2.806154298353225052e-02,5.113163131265247685e+00,6.735931490552625467e-02,9.056267815690797196e-01,-2.450038962299177225e-01,3.461404676384864931e-01,1.426879162992250372e+02
7.834060172049869819e-02,5.020029894179718788e+00,-9.741389001858731522e-02,8.532742749911051972e-01,-2.269404567795581806e-01,4.694901923523955856e-01,1.441037822916869118e+02
1.475628207421230687e-01,4.933141033743522641e+00,-2.584155723627840073e-01,7.823273675849329312e-01,-2.037687560508726903e-01,5.885933944456980260e-01,1.455196482841487864e+02
2.372934481272816754e-01,4.851322139789171040e+00,-4.120354752507281448e-01,6.959248277133469607e-01,-1.765714067601172887e-01,6.960683676815816456e-01,1.469355142766106610e+02
3.491669579358817610e-01,4.773407062238633536e+00,-5.546358712086734144e-01,5.998163256802315768e-01,-1.471110697418122892e-01,7.864977486343402990e-01,1.483513802690725356e+02
4.838650853295669574e-01,4.698998194787273874e+00,-6.827719628034459864e-01,5.006447729667952151e-01,-1.173142189242395439e-01,8.576667099399519767e-01,1.497672462615344102e+02
6.400679213079901730e-01,4.629269039151210130e+00,-7.936579405927883801e-01,4.041568614014597327e-01,-8.877362740734710822e-02,9.103716133860186854e-01,1.511831122539962848e+02
8.154575361190985472e-01,4.566247171320329201e+00,-8.851676172391341746e-01,3.142373625127293790e-01,-6.250796659204437000e-02,9.472843470223559770e-01,1.525989782464581594e+02
1.007771625987795794e+00,4.512030709974524711e+00,-9.553476376637460854e-01,2.328665076522104527e-01,-3.898316713691476337e-02,9.717270719156889669e-01,1.540148442389200341e+02
1.214825614484699168e+00,4.468765381550093174e+00,-1.002165270474265624e+00,1.605848920469984398e-01,-1.826531357145011122e-02,9.868530137595924456e-01,1.554307102313819087e+02
1.341748260461070652e+00,4.451299969890995634e+00,-1.014630648791995604e+00,9.704995188563640685e-02,-1.869611885047947012e-04,9.952794943554849061e-01,1.562480628014755268e+02
1.572601687796515435e+00,4.435527592617584780e+00,-1.009753543203451676e+00,-7.069497921097834560e-05,-5.956837023416438096e-05,9.999999957269145590e-01,1.576639287939374015e+02
1.715322688896018244e+00,4.435365689819381174e+00,-9.907985861713152209e-01,-2.040113955275838220e-01,-4.149660817012563942e-05,9.789685126565201845e-01,1.585063343111506811e+02
1.962191535799036934e+00,4.451210383209836863e+00,-9.322201974758728138e-01,-4.079489165172835996e-01,-2.074830392877663509e-05,9.130047541398030875e-01,1.599222003036125557e+02
2.213805276846064540e+00,4.483329119058549139e+00,-8.481025263441411832e-01,-5.855752083478741321e-01,-0.000000000000000000e+00,8.106180823102477895e-01,1.613380662960744303e+02
2.467701393431783075e+00,4.531901166771488576e+00,-7.400589241597566037e-01,-6.224479397301917460e-01,5.008812851229860197e-02,7.810568108068548510e-01,1.627539322885363049e+02
2.617718964630511902e+00,4.570345352873754763e+00,-6.630270174530299432e-01,-6.598397329602218031e-01,1.052844073687221882e-01,7.439937636647232511e-01,1.635904545862987618e+02
2.869720487327691139e+00,4.651134530070062389e+00,-5.121036241907576114e-01,-6.965362662565014462e-01,1.652936920360602302e-01,6.982229050686752370e-01,1.650063205787606364e+02
3.117802493137663333e+00,4.746223236625068509e+00,-3.428348022790002059e-01,-7.309199053677263302e-01,2.293232540287005461e-01,6.427806290632301911e-01,1.664221865712225110e+02
3.359709026851538827e+00,4.854226601732969826e+00,-1.575997876142775367e-01,-7.610540038108296601e-01,2.959794921895959607e-01,5.772286752117350428e-01,1.678380525636843856e+02
3.593151906640251525e+00,4.973823002749860223e+00,4.128160059645977209e-02,-7.849047031175098166e-01,3.632724310971723325e-01,5.019539299863722270e-01,1.692539185561462602e+02
3.815802535448010069e+00,5.103749380757482079e+00,2.515403268421380623e-01,-8.006900775331059483e-01,4.287900051515673439e-01,4.183712839358690871e-01,1.706697845486081349e+02
4.025283530280432842e+00,5.242796829387811997e+00,4.709496953017721643e-01,-8.072670679444496900e-01,4.900457221034758004e-01,3.288997890854510886e-01,1.720856505410700095e+02
4.219160139717103242e+00,5.389806441775752965e+00,6.973170634044720817e-01,-8.044068775492938528e-01,5.449086529363637021e-01,2.366519285923378291e-01,1.735015165335318841e+02
4.394931419084684876e+00,5.543665401669058745e+00,9.284756821140343064e-01,-7.928331485565559555e-01,5.919589952667367871e-01,1.449142728398197244e-01,1.749173825259937587e+02
4.550021131729014456e+00,5.703303305841835424e+00,1.162276632571179746e+00,-7.740089353966288499e-01,6.306389638103377937e-01,5.660976285412817194e-02,1.763332485184556333e+02
4.681768343589928882e+00,5.867688705954608785e+00,1.396064868722868502e+00,-7.497787240756302873e-01,6.611747871075420724e-01,-2.607231897657198358e-02,1.777491145109175079e+02
4.789072921385925774e+00,6.035822192681777665e+00,1.626958672571767961e+00,-7.220135159310530071e-01,6.843486697956462361e-01,-1.018006923444463169e-01,1.791649805033793825e+02
4.874046801043878219e+00,6.206714965271077133e+00,1.853160186623041383e+00,-6.923610606911864140e-01,7.012338231804530198e-01,-1.700214306089095628e-01,1.805808464958412571e+02
4.940366661339493426e+00,6.379367427555274084e+00,2.073659387571601620e+00,-6.621269057880017073e-01,7.129750327387287534e-01,-2.307695025838888137e-01,1.819967124883031317e+02
4.991043741961465940e+00,6.552731353026784333e+00,2.287693543136165797e+00,-6.685047366357180776e-01,6.936749150070224967e-01,-2.681725738878034115e-01,1.834125784807650064e+02
5.027846122185617439e+00,6.725680673631125650e+00,2.495012885284989324e+00,-6.738477516307948001e-01,6.722919311897512795e-01,-3.065171559297738546e-01,1.848284444732268810e+02
5.046946057109962247e+00,6.862492532655106281e+00,2.655098096385494877e+00,-6.779915358962493865e-01,6.487622058099562494e-01,-3.455938042929078691e-01,1.859585054654500595e+02
5.058953700997877334e+00,7.031259241941334892e+00,2.848835465345104456e+00,-6.807762274513754486e-01,6.230574187337052372e-01,-3.851534513644727653e-01,1.873743714579119342e+02
5.060051610978466563e+00,7.196208806129186009e+00,3.035649522628346197e+00,-6.820537666578969649e-01,5.951918522987048599e-01,-4.249109534302588642e-01,1.887902374503738088e+02
5.051202518233721683e+00,7.356123355311660283e+00,3.215457710948502967e+00,-6.816957437086675897e-01,5.652280894453165505e-01,-4.645515255722273973e-01,1.902061034428356834e+02
5.033323579069141296e+00,7.509760003699481601e+00,3.388151401308841848e+00,-6.796012238548736484e-01,5.332805478796224241e-01,-5.037400458452429008e-01,1.916219694352975580e+02
5.007289638607534954e+00,7.655846509263128041e+00,3.553595488748688247e+00,-6.757037955322977574e-01,4.995161321322379999e-01,-5.421328383734886902e-01,1.930378354277594326e+02
4.973936306202881852e+00,7.793076802912419332e+00,3.711627889561766480e+00,-6.699770506834700212e-01,4.641515267104835418e-01,-5.793911561370317376e-01,1.944537014202213072e+02
4.934062853204808086e+00,7.920106371765563757e+00,3.862058938115845219e+00,-6.624377999366823921e-01,4.274470208655583581e-01,-6.151952580833233153e-01,1.958695674126831818e+02
4.888434942931803029e+00,8.035547480448393287e+00,4.004670681028910550e+00,-6.531465508146799825e-01,3.896971926294836575e-01,-6.492577925720920407e-01,1.972854334051450564e+02
4.837787201972120421e+00,8.137964213697857829e+00,4.139216066075027456e+00,-6.422051032419320293e-01,3.512192026608168538e-01,-6.813352163599938338e-01,1.987012993976069311e+02
4.782825641221121415e+00,8.225867322819912175e+00,4.265418022801574338e+00,-6.297514820086679288e-01,3.123397672936708003e-01,-7.112362059645318535e-01,2.001171653900688057e+02
4.724229934380447027e+00,8.297708857767064572e+00,4.382968431436482071e+00,-6.159527558274854320e-01,2.733820266403603205e-01,-7.388264140503745248e-01,2.015330313825306803e+02
4.662655560984986458e+00,8.351876565751972237e+00,4.491526976248352732e+00,-6.009965212340925289e-01,2.346534719044396367e-01,-7.640294036146195733e-01,2.029488973749925549e+02
4.598735820384336037e+00,8.386688036399288393e+00,4.590719879092421962e+00,-5.850819187725726511e-01,1.964358695127239041e-01,-7.868240575212382959e-01,2.043647633674544295e+02
4.533083722484373190e+00,8.400384572452978205e+00,4.680138508429248390e+00,-5.684109970791528799e-01,1.589777801462775031e-01,-8.072391243115296655e-01,2.057806293599163041e+02
4.474006191457152504e+00,8.392246463779256871e+00,4.750185910928909294e+00,-5.511810782445362156e-01,1.224898968575781621e-01,-8.253457724814553531e-01,2.070327456653343177e+02
4.406605706892485763e+00,8.358328141744019391e+00,4.818713289309515702e+00,-5.335785543036569711e-01,8.714309002340615840e-02,-8.412490762243913789e-01,2.084486116577961923e+02
4.338879955069777417e+00,8.298822119367011751e+00,4.876306102221406036e+00,-5.261111744570694526e-01,7.937296001046523219e-02,-8.467035876448026910e-01,2.098644776502580669e+02
4.270550837923778431e+00,8.214900335503164897e+00,4.923195316331526961e+00,-5.185592721813436778e-01,7.158327149036984582e-02,-8.520399735208971093e-01,2.112803436427199415e+02
4.201069136754405520e+00,8.108744440907569739e+00,4.959836870004546761e+00,-5.109259488975004260e-01,6.377740191462953623e-02,-8.572555731800222123e-01,2.126962096351818161e+02
4.129895596349379971e+00,7.982456835768959813e+00,4.986648565858772919e+00,-5.032144201264296957e-01,5.595875748229206526e-02,-8.623478792447160091e-01,2.141120756276436907e+02
4.056498397327323424e+00,7.838068447560646135e+00,5.004011625579861011e+00,-4.954280087486381268e-01,4.813076573003308156e-02,-8.673145435985724072e-01,2.155279416201055653e+02
3.980350707409348043e+00,7.677546259039148779e+00,5.012272108602120468e+00,-4.875701378560551302e-01,4.029686802782225796e-02,-8.721533827820515672e-01,2.169438076125674399e+02
3.900928300848046870e+00,7.502800613959557552e+00,5.011742199936693787e+00,-4.796443232317089689e-01,3.246051201844812190e-02,-8.768623827893953226e-01,2.183596736050293146e+02
3.849656279440107021e+00,7.387186689182913213e+00,5.006152996313209869e+00,-4.716541654957944196e-01,2.462514403962601933e-02,-8.814397032420840938e-01,2.192338562434798064e+02
3.762599084919467707e+00,7.188977858325807269e+00,4.988782189093573294e+00,-4.636033419589984383e-01,1.679420156749854981e-02,-8.858836809187525807e-01,2.206497222359416810e+02
3.671196882044595267e+00,6.981393072319346693e+00,4.963419504732775600e+00,-4.340660454720638994e-01,1.513410089939973974e-02,-9.007539215336289873e-01,2.220655882284035556e+02
3.575670906493502166e+00,6.765930392960968653e+00,4.930675937370975426e+00,-4.036288392792956037e-01,1.343379079710561343e-02,-9.148241871348111731e-01,2.234814542208654302e+02
3.476489410861529628e+00,6.543974187168260848e+00,4.891276328389388084e+00,-3.723688424064619529e-01,1.169797429111222795e-02,-9.280111004736721902e-01,2.248973202133273048e+02
3.374116067780231543e+00,6.316881519136460454e+00,4.845920749301940056e+00,-3.403745788334904820e-01,9.931896696977448799e-03,-9.402374718718269353e-01,2.263131862057891794e+02
3.269011546481273012e+00,6.085987233293958631e+00,4.795287107006511285e+00,-3.077449503371576522e-01,8.141277617626337809e-03,-9.514340571688261194e-01,2.277290521982510541e+02
3.161635111641253548e+00,5.852608943899552330e+00,4.740033666552993630e+00,-2.745878506602605906e-01,6.332225514149545341e-03,-9.615411666641300314e-01,2.291449181907129287e+02
3.052446249952172952e+00,5.618051949711583504e+00,4.680801500816386351e+00,-2.410184596308199700e-01,4.511137499034164819e-03,-9.705100472203528339e-01,2.305607841831748033e+02
2.942484883399855811e+00,5.384835580286893908e+00,4.618542920121868178e+00,-2.071572766330569970e-01,2.684588010166115684e-03,-9.783039689816200868e-01,2.319692639536417289e+02
2.831062521050555336e+00,5.151807888787981682e+00,4.553217735616192918e+00,-1.731279701755709388e-01,8.592108020734741608e-04,-9.848989631935268774e-01,2.333851299461036035e+02
2.719224044926425776e+00,4.921489649372086106e+00,4.485755481230181196e+00,-1.390551323849303633e-01,-9.584208423485659828e-04,-9.902841771869822507e-01,2.348009959385654781e+02
2.607628754444351937e+00,4.695130243728875108e+00,4.416919824649773396e+00,-1.050620327989727348e-01,-2.761910672583735467e-03,-9.944618349205686103e-01,2.362168619310273527e+02
2.593686007381635683e+00,4.667054368937048281e+00,4.408150998885608018e+00,-7.126846431413685901e-02,-4.545148065730385267e-03,-9.974468144334138753e-01,2.363958318393204081e+02
2.485388556894482459e+00,4.449852754577123370e+00,4.338967101901350709e+00,-3.778876584677604011e-02,-6.302404526998926435e-03,-9.992658749666956108e-01,2.378116978317822827e+02
2.379813260823733678e+00,4.239104635026465395e+00,4.270953664166902364e+00,-4.730092251022989698e-03,-8.028414844100014922e-03,-9.999565844487389166e-01,2.392275638242441573e+02
2.278280912842515438e+00,4.035958068565766332e+00,4.205330546392504587e+00,5.577075589704340308e-02,3.802377660332939557e-02,-9.977193068190535197e-01,2.406434298167060319e+02
2.182269949197819692e+00,3.841605063735504366e+00,4.143234820399877449e+00,1.174231659584801385e-01,8.497909056034676223e-02,-9.894394141451126057e-01,2.420592958091679066e+02
2.093354956018786073e+00,3.657272639449653973e+00,4.085770842757673549e+00,1.791155371835365662e-01,1.319923895621459009e-01,-9.749336559156873694e-01,2.434751618016297812e+02
2.013145452718485995e+00,3.484214573023894701e+00,4.034060206672488214e+00,2.396926251885236336e-01,1.781838229820330022e-01,-9.543573600374974930e-01,2.448910277940916558e+02
1.943292130424096209e+00,3.323715820249836472e+00,3.989245915913988139e+00,2.980606656112758657e-01,2.227188455579615922e-01,-9.282004931310324780e-01,2.463068937865535304e+02
1.940722207967756852e+00,3.317190343764480076e+00,3.987589450277131853e+00,3.532833449224508371e-01,2.648814910786053689e-01,-8.972339014350602104e-01,2.463677848236414434e+02
1.891972599404836197e+00,3.174929041677655661e+00,3.955994586755708919e+00,8.178711887174369144e-01,-6.501154241105427944e-02,-5.717169037375600116e-01,2.477836508161033180e+02
1.857160767277037827e+00,3.047976940930095857e+00,3.933739789203393844e+00,9.302570451933813711e-01,-3.669084761464080913e-01,0.000000000000000000e+00,2.491995168085651926e+02
1.837578605973572587e+00,2.937979891320010140e+00,3.921501376027066943e+00,9.396490459197018863e-01,-3.321372430977431733e-01,-8.212504033256087799e-02,2.506153828010270672e+02
1.833239810664375913e+00,2.847086344605611163e+00,3.919193747003731687e+00,9.407955116604772572e-01,-2.853205578205632587e-01,-1.830190824052601306e-01,2.520312487934889418e+02
1.843206148698474767e+00,2.777737834076487111e+00,3.926898820886190133e+00,9.261036058227007928e-01,-2.225468000542609459e-01,-3.046391850497900955e-01,2.534471147859508164e+02
1.866315920712128040e+00,2.732675604163271377e+00,3.945827579148931008e+00,8.846296410871452576e-01,-1.406245241016690906e-01,-4.445842342359969113e-01,2.548629807784126911e+02
1.901033146283852115e+00,2.713780443906972373e+00,3.977636886585708798e+00,8.049325505530562364e-01,-4.012252886703310262e-02,-5.920082530991146452e-01,2.562788467708745657e+02
1.912726836510008521e+00,2.715468273156918411e+00,3.989455531065716709e+00,6.830108017603598869e-01,7.117715383247767702e-02,-7.269319482943216171e-01,2.566505087857293006e+02
1.965544709133191015e+00,2.746040878095986848e+00,4.047219542011236015e+00,5.300414770554739974e-01,1.792413398380003631e-01,-8.288115435332268355e-01,2.580663747781911752e+02
2.024706314486850012e+00,2.799935897274630214e+00,4.117261079158702763e+00,3.685378649064395828e-01,2.712182020763443391e-01,-8.891684480415834591e-01,2.594822407706530498e+02
2.087771844417457778e+00,2.875498916579111608e+00,4.198947784539848627e+00,2.188280669293710401e-01,3.418611232242432241e-01,-9.139175288568512912e-01,2.608981067631149244e+02
2.152305438426055595e+00,2.971172491295354767e+00,4.291690636621542154e+00,9.097102572482729244e-02,3.928418403608963105e-01,-9.150953835204486131e-01,2.623139727555767990e+02
2.215866661389024106e+00,3.085490343601647201e+00,4.394941758297837175e+00,-1.369238987057640883e-02,4.286319836904234903e-01,-9.033754153270083798e-01,2.637298387480386737e+02
2.276001926745735204e+00,3.217071956627826967e+00,4.508192378006454781e+00,-9.799453675694468069e-02,4.536392669438001346e-01,-8.857812857881359747e-01,2.651457047405005483e+02
2.330922101404623970e+00,3.364543143128862379e+00,4.630724886109588212e+00,-9.400727856214496914e-02,4.351813309765032445e-01,-8.954215994417704660e-01,2.665615707329624229e+02
2.380181895020152538e+00,3.526450602677585255e+00,4.761364114105045786e+00,-8.993897293798190640e-02,4.163482078032577638e-01,-9.047459041111356459e-01,2.679774367254242975e+02
2.423991344648482649e+00,3.701321979093453507e+00,4.898719011609843577e+00,-8.579355555065867889e-02,3.971581165288263771e-01,-9.137313042143468955e-01,2.693933027178861721e+02
2.460458501426633138e+00,3.877812462213402256e+00,5.033832555247678364e+00,-8.157539406004676863e-02,3.776312760560981419e-01,-9.223557201146372897e-01,2.707337476642978231e+02
2.493830851150758310e+00,4.074419181451817806e+00,5.180585594961628182e+00,-7.728927258840054271e-02,3.577898331881937399e-01,-9.305980891931383558e-01,2.721496136567596977e+02
2.522192670554137539e+00,4.279874686608674317e+00,5.330055934726111388e+00,-7.294037054402356668e-02,3.376577645983419584e-01,-9.384385629072108381e-01,2.735654796492215723e+02
2.545638735832101762e+00,4.492864993305298427e+00,5.480922602984994896e+00,-6.853423589036423957e-02,3.172607530863707503e-01,-9.458586961391182157e-01,2.749813456416834470e+02
2.564236679009569198e+00,4.712103660459931120e+00,5.631869824457325535e+00,-6.407675308881290166e-02,2.966260391785359718e-01,-9.528416251375928514e-01,2.763972116341453216e+02
2.578027410135185882e+00,4.936327174618481806e+00,5.781582123600359502e+00,-5.957410608177018257e-02,2.757822497676248319e-01,-9.593722304703558024e-01,2.778130776266071962e+02
2.587025408625697853e+00,5.164290417367045194e+00,5.928739429188333965e+00,-5.503273681584944232e-02,2.547592061073118419e-01,-9.654372816408788305e-01,2.792289436190690708e+02
2.591218885355135892e+00,5.394762199796771185e+00,6.072012161788784113e+00,-5.045929992777950512e-02,2.335877140427733423e-01,-9.710255603737061314e-01,2.806448096115309454e+02
2.590569816491556931e+00,5.626520848233069749e+00,6.210056285854910207e+00,-4.586061432236396979e-02,2.122993398539146370e-01,-9.761279600296097758e-01,2.820606756039928200e+02
2.585013849498068339e+00,5.858349825627884755e+00,6.341508308021079898e+00,-4.124361245799441217e-02,1.909261754863374461e-01,-9.807375591592150110e-01,2.834765415964546946e+02
2.574460081131350719e+00,6.089033373145688266e+00,6.464980202988060753e+00,-3.661528821686382135e-02,1.695005972305587139e-01,-9.848496678210739708e-01,2.848924075889165692e+02
2.558790706687196437e+00,6.317352156551820919e+00,6.579054248114958092e+00,-3.198264427148645589e-02,1.480550220695159569e-01,-9.884618459532966694e-01,2.863082735813784439e+02
2.537860539156320705e+00,6.542078902036928767e+00,6.682277747495219522e+00,-2.735263986501945688e-02,1.266216659416560530e-01,-9.915738937701891187e-01,2.877241395738403185e+02
2.511496396362640660e+00,6.761974006082636990e+00,6.773157625883058586e+00,-2.273213990021787784e-02,1.052323080619893408e-01,-9.941878148295237860e-01,2.891400055663021931e+02
2.479496353557551824e+00,6.975781103891485202e+00,6.850154872352145041e+00,-1.812786618204210998e-02,8.391806521289663090e-02,-9.963077530555556338e-01,2.905558715587640677e+02
2.441628858334924157e+00,7.182222580770107001e+00,6.911678813010352584e+00,-1.354635158464713787e-02,6.270917957257253483e-02,-9.979399055835376231e-01,2.919717375512259423e+02
2.397631704109985051e+00,7.379995010664143429e+00,6.956081191456692459e+00,-8.993897818466158392e-03,4.163482320913446805e-02,-9.990924137928257620e-01,2.933876035436878169e+02
2.347210857767285219e+00,7.567764505796242602e+00,6.981650034948880368e+00,-4.476537361918958395e-03,2.072292185373817916e-02,-9.997752353019608851e-01,2.948034695361496915e+02
2.290039136427265642e+00,7.744161961060269661e+00,6.986603283455440128e+00,-0.000000000000000000e+00,-0.000000000000000000e+00,-1.000000000000000000e+00,2.962193355286115661e+02
2.226239085726499756e+00,7.908062372657358452e+00,6.969618207251875752e+00,2.611649282019994078e-02,-4.309444371033206711e-02,-9.987295918936563988e-01,2.976352015210734407e+02
2.156870035257454354e+00,8.058860768637796212e+00,6.930362533872125752e+00,5.310161370545550541e-02,-8.762219791577784134e-02,-9.947374372437607359e-01,2.990510675135353154e+02
2.087339804318544711e+00,8.188850001645766596e+00,6.872237223198341738e+00,8.076821911954606970e-02,-1.332744597980211332e-01,-9.877825738216901019e-01,3.003913960325501762e+02
2.011278481555641484e+00,8.312243120586799705e+00,6.788733922952911115e+00,1.088923188726583363e-01,-1.796816264133194452e-01,-9.776793830392453977e-01,3.018072620250120508e+02
1.934087918787464222e+00,8.421217810389707736e+00,6.683085145846145103e+00,1.372193435475601575e-01,-2.264236364809790458e-01,-9.643148804198274915e-01,3.032231280174739254e+02
1.857248503163925424e+00,8.515211148178007505e+00,6.555164711648459708e+00,1.654736932355234114e-01,-2.730457266131657845e-01,-9.476626446290283834e-01,3.046389940099358000e+02
1.782215325570924769e+00,8.593612348291440384e+00,6.405363900009003686e+00,1.933709455016709433e-01,-3.190785755003857083e-01,-9.277912157874930177e-01,3.060548600023976746e+02
1.709939575822219116e+00,8.656131580201662956e+00,6.235269392693968626e+00,2.206315909162370748e-01,-3.640609687111885928e-01,-9.048653558131404262e-01,3.074707259948595492e+02
1.640436542755413507e+00,8.703138515191804814e+00,6.047144980779171952e+00,2.469948182426921768e-01,-4.075625454299384165e-01,-8.791395403028626765e-01,3.088865919873214239e+02
1.573273842007245626e+00,8.735298968879916970e+00,5.843263503007660731e+00,2.722307969491550295e-01,-4.492040656496689155e-01,-8.509442405917297947e-01,3.103024579797832985e+02
1.508032145239572630e+00,8.753226253201948026e+00,5.625839159629517638e+00,2.961501364418442361e-01,-4.886730187151718807e-01,-8.206666664762729546e-01,3.117183239722451731e+02
1.444303262606812410e+00,8.757483381869128891e+00,5.397035752342846493e+00,3.186096818013557930e-01,-5.257331867828577421e-01,-7.887283987391221496e-01,3.131341899647070477e+02
1.381688281171749244e+00,8.748585100916342228e+00,5.158974736681853912e+00,3.395144061288810633e-01,-5.602277673536364411e-01,-7.555625829254073444e-01,3.145500559571689223e+02
1.329918478135852844e+00,8.730505261452750077e+00,4.953722779874233595e+00,3.588157289843061926e-01,-5.920765985521623254e-01,-7.215930806766113204e-01,3.157348531554578130e+02
1.268939596230222122e+00,8.696574614790373303e+00,4.702962674199640425e+00,5.481356704650297562e-01,-4.967338417621783297e-01,-6.729062172487630944e-01,3.171507191479196877e+02
1.209923858339103875e+00,8.650652315010958660e+00,4.448073249526820483e+00,7.191497833341163881e-01,-3.711849217520291622e-01,-5.874056034755145150e-01,3.185665851403815623e+02
1.154419640550031767e+00,8.593016129960801663e+00,4.190231663718870792e+00,8.469545333967970491e-01,-2.337126144865030175e-01,-4.775420737364376444e-01,3.199824511328434369e+02
1.103990182779092333e+00,8.523889822563184282e+00,3.930604088419172637e+00,8.781472628105472245e-01,-2.315142843169237519e-01,-4.186388909018920468e-01,3.213983171253053115e+02
1.060219102840584515e+00,8.443443867743919640e+00,3.670350048852434988e+00,9.089089048856949793e-01,-2.277572407775957097e-01,-3.493010762835735972e-01,3.228141831177671861e+02
1.024715991048887220e+00,8.351795933860833188e+00,3.410626738891826104e+00,9.374645949264799327e-01,-2.219023051213561692e-01,-2.681781129047625667e-01,3.242300491102290607e+02
9.991221048004488292e-01,8.249011129831437472e+00,3.152593327450133209e+00,9.612848054329606873e-01,-2.133322752354049612e-01,-1.744157767709110796e-01,3.256459151026909353e+02
9.851161829629400124e-01,8.135102018149968472e+00,2.897415272220740690e+00,9.771256870247020387e-01,-2.014347881281505492e-01,-6.818664010105712769e-02,3.270617810951528099e+02
9.844204003452559082e-01,8.010028392981086043e+00,2.646268656821148646e+00,9.813874540313505257e-01,-1.857568477688248398e-01,4.871404907060997852e-02,3.284776470876146846e+02
9.988064830317492371e-01,7.873696821506285026e+00,2.400344567476771385e+00,9.708871268531947818e-01,-1.662101325614488423e-01,1.724887786050269267e-01,3.298935130800765592e+02
1.029303741989385124e+00,7.726170616657610957e+00,2.160688165751683432e+00,9.438949187347379643e-01,-1.432425618425420821e-01,2.975633560496452890e-01,3.313093790725384338e+02
1.075406208524589902e+00,7.567887435965436893e+00,1.928037218231347438e+00,9.009511328462028734e-01,-1.178542290494696831e-01,4.176091916113662816e-01,3.327252450650003084e+02
1.135871535997079462e+00,7.399460448467024776e+00,1.702990201828465944e+00,8.449178852733866263e-01,-9.139757878496322652e-02,5.270296478732431344e-01,3.341411110574621830e+02
1.209515321639356822e+00,7.221473086465502789e+00,1.486173890746432136e+00,7.801577611203385221e-01,-6.524508993616359720e-02,6.221711549107067363e-01,3.355569770499240576e+02
1.295206465783239169e+00,7.034480850528693097e+00,1.278245688969375404e+00,7.113165401434569102e-01,-4.049650924558772375e-02,7.017042200651666395e-01,3.369728430423859322e+02
1.391862743057664664e+00,6.839013040507967212e+00,1.079896076734276233e+00,6.423397589909646266e-01,-1.784389546531590584e-02,7.662122613310573538e-01,3.383887090348478068e+02
1.466269406951023591e+00,6.697238076524674177e+00,9.487856511408582216e-01,5.760262340977284623e-01,2.408098143831345714e-03,8.174276596094107727e-01,3.393757533785441751e+02
1.582188495127619943e+00,6.486452282052296070e+00,7.717150804055191715e-01,5.140407902408019591e-01,2.024015180335595257e-02,8.575269104952852883e-01,3.407916193710060497e+02
1.706290325860195134e+00,6.268640090564018053e+00,6.064354159949481016e-01,4.571583152755001045e-01,3.580450173969685485e-02,8.886643418240876002e-01,3.422074853634679243e+02
1.837568220538544184e+00,6.044268074126171619e+00,4.538569934849331911e-01,3.896281632583323273e-01,-2.919836269582394908e-02,9.205092883897595391e-01,3.436233513559297990e+02
1.974882330749135217e+00,5.813839042425601455e+00,3.150596828439768404e-01,3.150852045016457881e-01,-9.672704314596378139e-02,9.441213868080707838e-01,3.450392173483916736e+02
2.117037229646735241e+00,5.577867861954715956e+00,1.912357731093352609e-01,2.354068546967696129e-01,-1.646911269499492791e-01,9.578415555120427527e-01,3.464550833408535482e+02
2.262859071351828177e+00,5.336856624366366653e+00,8.363327541656770392e-02,1.531023061849317579e-01,-2.308179167118017960e-01,9.608760446413882050e-01,3.478709493333154228e+02
2.276576110237716222e+00,5.314292503034134363e+00,7.521206296141944025e-02,7.093682623421725120e-02,-2.930138655782790758e-01,9.534730417073628006e-01,3.480014602836872655e+02
2.427727186850439089e+00,5.066021461234647028e+00,8.589139897397220311e-04,-8.509972854394485045e-03,-3.496798190746399082e-01,9.368306167573433596e-01,3.494173262761491401e+02
2.580035033391880450e+00,4.813898209903864078e+00,-5.476881390723595255e-02,-9.861555110825161174e-02,-2.686343953833061904e-01,9.581808465507236638e-01,3.508331922686110147e+02
2.732192480437316551e+00,4.558726717909403092e+00,-9.134285097394409525e-02,-1.900517890553121425e-01,-1.807164456173383227e-01,9.649983853666859179e-01,3.522490582610728893e+02
2.882836451789174248e+00,4.301420940417065353e+00,-1.088552095789820373e-01,-2.784212310260644752e-01,-8.988234191654985439e-02,9.562441020605184638e-01,3.536649242535347639e+02
3.002543409546525321e+00,4.092198311196654892e+00,-1.075476740225006084e-01,-3.597534765865136319e-01,-4.945344230605766209e-04,9.330472611393385574e-01,3.548109575914580205e+02
3.146720776281068499e+00,3.833580385639748567e+00,-8.697765214472429063e-02,-3.109156691197926259e-01,-4.274057145590486550e-04,9.504374066818639388e-01,3.562268235839198951e+02
3.286724181067137707e+00,3.576113876309635398e+00,-4.815966877973883176e-02,-2.605432585672758372e-01,-3.581675351379944115e-04,9.654621080763151619e-01,3.576426895763817697e+02
3.422441049963734994e+00,3.321282008783005946e+00,7.960968787075051525e-03,-2.090165397750036458e-01,-2.873426058337130045e-04,9.779120632933777646e-01,3.590585555688436443e+02
3.553752645917219066e+00,3.070578600916872514e+00,8.050334347036154636e-02,-1.567545880984003159e-01,-2.155069555023058508e-04,9.876375613892239835e-01,3.604744215613055189e+02
3.680533712051288209e+00,2.825513672418670907e+00,1.686476501346703960e-01,-1.041985957225312620e-01,-1.432670162902649361e-04,9.945565002170638769e-01,3.618902875537673935e+02
3.802652128059785142e+00,2.587619117125953494e+00,2.716321447679462819e-01,-5.179343915608251858e-02,-7.123428759142994839e-05,9.986578165648438699e-01,3.633061535462292682e+02
3.919968578898033851e+00,2.358454459053872743e+00,3.887503097225847304e-01,3.075312632428030919e-05,0.000000000000000000e+00,9.999999995271227071e-01,3.647220195386911428e+02
4.024504838775164295e+00,2.154885056267989540e+00,5.101634820414620020e-01,-3.932709530264573081e-03,0.000000000000000000e+00,9.999922668679745996e-01,3.660384468616033473e+02
4.132024509824862690e+00,1.947453094350896308e+00,6.535688399423775774e-01,-7.896110403326194946e-03,0.000000000000000000e+00,9.999688252343162942e-01,3.674543128540652219e+02
4.234621808441568547e+00,1.752766345829004369e+00,8.091787339000248158e-01,-5.518126543001202963e-03,2.118828339110715164e-01,9.772794968550545525e-01,3.688701788465270965e+02
4.332308505654309805e+00,1.572120130554026440e+00,9.764172269056261566e-01,-2.754622821785888444e-03,4.237656677571806085e-01,9.057676693741174567e-01,3.702860448389889712e+02
4.425086748858688246e+00,1.406862054552594721e+00,1.154751656682233341e+00,8.467482058952190987e-06,6.060582983568790771e-01,7.954202278802481318e-01,3.717019108314508458e+02
4.512900376257643842e+00,1.257917022328553847e+00,1.343389547030370723e+00,-2.398568941079957245e-03,6.507699209077183466e-01,7.592712011585827092e-01,3.731177768239127204e+02
4.533315770633675967e+00,1.225192810285943956e+00,1.392095253651145059e+00,-5.167862850270437021e-03,6.997130883674357316e-01,7.144052681502747193e-01,3.734664387375625552e+02
4.611147520894730789e+00,1.108165563893960037e+00,1.597951225378700046e+00,-8.341612674048299800e-03,7.524542955930996202e-01,6.585916417185146976e-01,3.748823047300244298e+02
4.683515839346936716e+00,1.007150849549292904e+00,1.810624363119091917e+00,-1.194463602565165768e-02,8.078181195681154447e-01,5.893107935271920672e-01,3.762981707224863044e+02
4.750143606254849438e+00,9.218769462431363193e-01,2.028546677442792490e+00,-1.596369937817807699e-02,8.635117447321791762e-01,5.040760131287254087e-01,3.777140367149481790e+02
4.810730531562385615e+00,8.521327211555470571e-01,2.250169713150463213e+00,-2.031974800433300823e-02,9.158053949307345398e-01,4.011079486332845834e-01,3.791299027074100536e+02
4.864952428646862614e+00,7.977669986817276238e-01,2.473958786730446224e+00,-2.484213385989221187e-02,9.595642078454207358e-01,2.803915109401088901e-01,3.805457686998719282e+02
4.912460394874250902e+00,7.586881582444643390e-01,2.698387275171875377e+00,-2.926561608304429143e-02,9.890259555149324422e-01,1.448143053467256802e-01,3.819616346923338028e+02
4.952879897401844644e+00,7.348639603976494517e-01,2.921930934891499909e+00,-3.327350425637297382e-02,9.994460879389145402e-01,6.254743006057034106e-04,3.833775006847956774e+02
4.985809762314241667e+00,7.263216005614947512e-01,3.143062229465812152e+00,-3.658547500732747815e-02,9.889627444285337132e-01,-1.435764366143374993e-01,3.847933666772575521e+02
5.010821064813285375e+00,7.331479910333962291e-01,3.360244645055110890e+00,-3.904530046550160061e-02,9.594415570737071519e-01,-2.791905497532803926e-01,3.862092326697194267e+02
5.027455917822353904e+00,7.554902732636565865e-01,3.571926972415254919e+00,-4.065229211916368546e-02,9.156298173526444817e-01,-3.999617840747054509e-01,3.876250986621813013e+02
5.035226155998887343e+00,7.935565629945859900e-01,3.776537534216136027e+00,-4.152492288888846167e-02,8.632910204275795474e-01,-5.029953228690902112e-01,3.890409646546431759e+02
5.033611911774458214e+00,8.476169317444363083e-01,3.972478336190459647e+00,-4.183444366707567835e-02,8.075600226459463959e-01,-5.882998292938258489e-01,3.904568306471050505e+02
5.022060079663170029e+00,9.180046290210617244e-01,4.158119120348628073e+00,-4.175011678108572766e-02,7.521658203441903279e-01,-6.576499878010467759e-01,3.918726966395669251e+02
5.000007521295503743e+00,1.004942310775327030e+00,4.331829289112659076e+00,-4.141133699145984476e-02,6.994001389871146168e-01,-7.135296397160980630e-01,3.932885626320287997e+02
4.999831522641292381e+00,1.005547206327334075e+00,4.332889713723412584e+00,-4.092114937053001333e-02,6.504372970559254563e-01,-7.584568426303347488e-01,3.932975479023692174e+02
4.966133169368088573e+00,1.109134706696518036e+00,4.492575464965415044e+00,-4.035058424030640162e-02,6.057098217322965938e-01,-7.946618414196665592e-01,3.947134138948310920e+02
4.920934931570966953e+00,1.228838947640243928e+00,4.637325942912392307e+00,-3.761368004302192286e-02,5.197555343455878551e-01,-8.534866112545372863e-01,3.961292798872929666e+02
4.863998079067230584e+00,1.363958920191869817e+00,4.766137035360499041e+00,-3.430423212962199070e-02,4.235376762254629557e-01,-9.052287315786722299e-01,3.975451458797548412e+02
4.795160933390204328e+00,1.513655148790804095e+00,4.878166874127095376e+00,-3.048659202826804054e-02,3.196596915379653070e-01,-9.470418413736295671e-01,3.989610118722167158e+02
4.714211698283091501e+00,1.677143724154878779e+00,4.972511141144680735e+00,-2.628623700226777674e-02,2.117688420773800040e-01,-9.769662180799633111e-01,4.003768778646785904e+02
4.674735022931926665e+00,1.751700104171769912e+00,5.004576442884895116e+00,-2.187048599883043704e-02,1.039511106205392443e-01,-9.943419172713837684e-01,4.009752579073004881e+02
4.568695034254272258e+00,1.940480526736064970e+00,5.061202326058628742e+00,-1.741718878752641919e-02,0.000000000000000000e+00,-9.998483092623299262e-01,4.023911238997623627e+02
4.450373148433294901e+00,2.141176187387652696e+00,5.098370049785245328e+00,0.000000000000000000e+00,2.371239420780988857e-02,-9.997188216498343882e-01,4.038069898922242373e+02
4.320795577858140391e+00,2.352929807228177683e+00,5.117345080292714954e+00,-2.222198009731290655e-02,2.061338910474983660e-02,-9.995405303389006679e-01,4.052228558846861119e+02
4.181420828826821534e+00,2.574829059098015627e+00,5.120141316956183353e+00,-4.453512888963478966e-02,1.748964918124609400e-02,-9.988547113901502517e-01,4.066387218771479866e+02
4.033664610138995243e+00,2.805989869436339657e+00,5.108712451250564612e+00,-6.690581223713083781e-02,1.434573507458088495e-02,-9.976561592923985922e-01,4.080545878696098612e+02
3.878905328728870838e+00,3.045553389355104557e+00,5.084959237231228890e+00,-8.929976548568789585e-02,1.118634993744039782e-02,-9.959419749459695881e-01,4.094704538620717358e+02
3.718489425200212306e+00,3.292683023755033300e+00,5.050736565012723389e+00,-1.116823505180442183e-01,8.016305020205513956e-03,-9.937116238811880553e-01,4.108863198545336104e+02
3.553736569658518807e+00,3.546561508406179897e+00,5.007860363569307971e+00,-1.340188209386162232e-01,4.840483416937972454e-03,-9.909669648149292964e-01,4.123021858469954850e+02
3.385944737642157865e+00,3.806388024961795402e+00,4.958114358545752332e+00,-1.562745907076080187e-01,1.663802605035992694e-03,-9.877122476005150142e-01,4.137180518394573596e+02
3.216395185435811044e+00,4.071375343885518028e+00,4.903256710226624904e+00,-1.784155014023178776e-01,-1.508823554241680827e-03,-9.839540803873124686e-01,4.151339178319192342e+02
3.046357343605572421e+00,4.340746985249779755e+00,4.845026556366293313e+00,-2.004080833007641782e-01,-4.672522671221101404e-03,-9.797013665804498173e-01,4.165497838243811088e+02
2.877015475045166859e+00,4.613630077965205523e+00,4.784527088144366225e+00,-2.222198056548411738e-01,-7.822500862123334120e-03,-9.749652129460756322e-01,4.179656498168429835e+02
2.731567577927198620e+00,4.852395927301357048e+00,4.729983873340729339e+00,-2.438193118393759407e-01,-1.095407831286297588e-02,-9.697588109125324651e-01,4.191936658388672754e+02
2.566433885181143015e+00,5.128934027270506846e+00,4.663991110485069314e+00,-1.883653466400967147e-01,-1.366542126570892968e-01,-9.725451775358444628e-01,4.206095318313291500e+02
2.404860064970864908e+00,5.405588233431918965e+00,4.594127805448763979e+00,-1.268747678796893208e-01,-2.647331866962976399e-01,-9.559388752096538155e-01,4.220253978237910246e+02
2.247798684993934870e+00,5.681173289842736729e+00,4.519583668375821262e+00,-6.278819481153208315e-02,-3.873954309046914180e-01,-9.197730278207105759e-01,4.234412638162528992e+02
2.096211312302938001e+00,5.954493587464693150e+00,4.439530990107876107e+00,3.685840016308102022e-07,-4.977913964173884542e-01,-8.672967921378994527e-01,4.248571298087147738e+02
1.951072040905413196e+00,6.224338636646234768e+00,4.353121561943654072e+00,3.780044440368087138e-07,-5.142597353653975967e-01,-8.576344935820668924e-01,4.262729958011766485e+02
1.813371035980296808e+00,6.489478460659334758e+00,4.259483519112024830e+00,3.884080140687458466e-07,-5.325103102617684270e-01,-8.464235166066478300e-01,4.276888617936385231e+02
1.684118107438787426e+00,6.748658892969365830e+00,4.157718096210596848e+00,3.999349476708374488e-07,-5.528135837158980603e-01,-8.333049511787541386e-01,4.291047277861003977e+02
1.564346325551563277e+00,7.000596760474706137e+00,4.046896282534802936e+00,4.127454147454139023e-07,-5.754851268556395727e-01,-8.178122454254265206e-01,4.305205937785622723e+02
1.455115691401541511e+00,7.243974934442122482e+00,3.926055364851006590e+00,4.270187384067256828e-07,-6.008888969971193372e-01,-7.993325549891001636e-01,4.319364597710241469e+02
1.357516875001600454e+00,7.477437230283086045e+00,3.794195344750634025e+00,4.429483314459831357e-07,-6.294353370933860603e-01,-7.770528659093531854e-01,4.333523257634860215e+02
1.272675034038297293e+00,7.699583136670295147e+00,3.650275217253911464e+00,4.607279243732520664e-07,-6.615677396272918731e-01,-7.498854085020079108e-01,4.347681917559478961e+02
1.201467423164081616e+00,7.909325148412200690e+00,3.493785515156790922e+00,4.805208285114913835e-07,-6.977241203554958027e-01,-7.163665625040845919e-01,4.361840577484097707e+02
1.144089389394758571e+00,8.106297515541669441e+00,3.325426470056241701e+00,5.023973209653478509e-07,-7.382506584143385675e-01,-6.745264749070589705e-01,4.375999237408716454e+02
1.100192456917492345e+00,8.290544684497271888e+00,3.146637838466863180e+00,5.262147384818471129e-07,-7.832241639054781102e-01,-6.217394221651768582e-01,4.390157897333335200e+02
1.069325147647200991e+00,8.462113904491296523e+00,2.958924202783113078e+00,5.514019324153739936e-07,-8.321155959887344133e-01,-5.546022312540848098e-01,4.404316557257953946e+02
1.062771513378113264e+00,8.518776637085629488e+00,2.889319803766059458e+00,5.766061806028029476e-07,-8.832104086739848148e-01,-4.689769440064194828e-01,4.409361917295178728e+02
1.056614059841966435e+00,8.665125079728586144e+00,2.687437510424835363e+00,5.992078904408507374e-07,-9.327586690054322505e-01,-3.605014083118889268e-01,4.423520577219797474e+02
1.062635226268350053e+00,8.798534397557332909e+00,2.480201396282899928e+00,6.148976493341588143e-07,-9.741139425994428391e-01,-2.260575741553277340e-01,4.437679237144416220e+02
1.080469416982622777e+00,8.918852169706234179e+00,2.268988256923774482e+00,6.179065132288680466e-07,-9.977856815472898599e-01,-6.651115469474577768e-02,4.451837897069034966e+02
1.109595187079500445e+00,9.025843215478824177e+00,2.055116268561169246e+00,6.027377874898173708e-07,-9.939020329680545718e-01,1.102667169258465529e-01,4.465996556993653712e+02
1.149432234624743199e+00,9.119208000617826215e+00,1.839871803097842928e+00,5.672826292021654190e-07,-9.572601738210714251e-01,2.892282137270330566e-01,4.480155216918272458e+02
1.199438331836077509e+00,9.198599938221295957e+00,1.624536124854180974e+00,5.149221088628616420e-07,-8.913543399511402177e-01,4.533072254553217606e-01,4.494313876842891204e+02
1.259106969815054988e+00,9.263623851952367261e+00,1.410390158684097894e+00,4.530824973633855880e-07,-8.068827583929396585e-01,5.907116167877483059e-01,4.508472536767509951e+02
1.327965126624012893e+00,9.313834273387243456e+00,1.198719256823416179e+00,3.894851482873576784e-07,-7.160164015359659073e-01,6.980834568526420592e-01,4.522631196692128697e+02
1.405571149211052084e+00,9.348733566370700743e+00,9.908179822122346048e-01,3.294892638731901131e-07,-6.278223618981556564e-01,7.783566546901958816e-01,4.536789856616747443e+02
1.491512740053445141e+00,9.367769870662556286e+00,7.879949260928191812e-01,2.757009813883500732e-07,-5.471867897255977553e-01,8.370105239181394596e-01,4.550948516541366189e+02
1.585405039726512033e+00,9.370334856544403124e+00,5.915775778112204453e-01,2.287890291368278733e-07,-4.758434576869844945e-01,8.795299902655069335e-01,4.565107176465984935e+02
1.686888796906069521e+00,9.355761281410213570e+00,4.029172649462717248e-01,1.883990052295829169e-07,-4.137426496124029240e-01,9.103938817301403530e-01,4.579265836390603681e+02
1.795628617579049235e+00,9.323320338682144381e+00,2.233941821511123138e-01,1.537666728189513213e-07,-3.600333248768897154e-01,9.329394433606440495e-01,4.593424496315222427e+02
1.911311285468315191e+00,9.272218788673248113e+00,5.442252742095204238e-02,1.240421393821419793e-07,-3.136128962452129354e-01,9.495509208613689411e-01,4.607583156239841173e+02
2.033406273090491378e+00,9.202178929943592323e+00,-1.025532146103379089e-01,9.843296697664656523e-08,-2.733888526130433538e-01,9.619035997785402303e-01,4.621741816164459919e+02
2.160929760542964928e+00,9.114024698478596420e+00,-2.465281936041590904e-01,7.625334939443040450e-08,-2.383831951224929524e-01,9.711711755829585124e-01,4.635900476089078666e+02
