1.345345847369778802e+00,5.675912850272263555e+00,-3.644194634444273273e-01,3.425838960714072678e-01,2.419304929484506622e-02,9.391756867159373190e-01,1.366941375782439536e+02
1.397831772710038001e+00,5.466512953338631853e+00,-5.317135448339355142e-01,3.125676437600363178e-01,2.117762023247659470e-02,9.496594002459977091e-01,1.381810559312865507e+02
1.447896301123211549e+00,5.255046694762873116e+00,-6.804342409728530994e-01,2.821701323601817912e-01,1.813434908912079160e-02,9.591929742168420203e-01,1.396679742843291478e+02
1.494321273057897193e+00,5.041961300721893302e+00,-8.088486674119509390e-01,2.514836336585706267e-01,1.507250546921116117e-02,9.677441818893888215e-01,1.411548926373717450e+02
1.520962298766942666e+00,4.905410789431308594e+00,-8.767094590406517840e-01,2.206030759105019612e-01,1.200152970168904057e-02,9.752898267610734528e-01,1.421027168895938644e+02
1.557084349287194858e+00,4.690536647108435098e+00,-9.595996736506948732e-01,1.896245826401161405e-01,8.930888002958730157e-03,9.818160504381868714e-01,1.435896352426364615e+02
1.586235708977909775e+00,4.475445925951927251e+00,-1.017047927530815965e+00,1.586439960543727934e-01,5.869928451102195480e-03,9.873184017609918373e-01,1.450765535956790586e+02
1.607220864348615885e+00,4.260259984260237331e+00,-1.047521438738658439e+00,1.277554372162920115e-01,2.827742809184575091e-03,9.918016697567508810e-01,1.465634719487216557e+02
1.612314454247594009e+00,4.169859263723221687e+00,-1.048812417103586414e+00,9.704995188563640685e-02,-1.869611885047947012e-04,9.952794943554849061e-01,1.471868371647419167e+02
1.614927518033353548e+00,3.953255225949526164e+00,-1.024473655472614153e+00,-7.069497921097834560e-05,-5.956837023416438096e-05,9.999999957269145590e-01,1.486737555177845138e+02
1.607833952752299789e+00,3.735040530115476987e+00,-9.725118691902201462e-01,-5.855752083478741321e-01,-0.000000000000000000e+00,8.106180823102477895e-01,1.501606738708271109e+02
1.592793624666663632e+00,3.514549341341651978e+00,-8.926882915845241184e-01,-5.965341865885565031e-01,1.664590815314703071e-02,8.024150285063748056e-01,1.516475922238697081e+02
1.572100563503747939e+00,3.291780855349175638e+00,-7.853433891636847353e-01,-6.081863048504778657e-01,3.481662610405237418e-02,7.930304036662478850e-01,1.531345105769123052e+02
1.553963584205866777e+00,3.127904875347240043e+00,-6.877428663516852447e-01,-6.205622529687900846e-01,5.469693024603349690e-02,7.822472345824943440e-01,1.542226300032475024e+02
1.526100245296854618e+00,2.904418609229342696e+00,-5.304128120202900032e-01,-6.336821453260265136e-01,7.649410274632116591e-02,7.698023064008316929e-01,1.557095483562900995e+02
1.496161116127755930e+00,2.682942988366554538e+00,-3.514672342396807370e-01,-6.475486241712534730e-01,1.004383637087993691e-01,7.553760086403429330e-01,1.571964667093326966e+02
1.465359642870313950e+00,2.464884153709567371e+00,-1.534521957837862438e-01,-6.621369027098186200e-01,1.267814713398229820e-01,7.385805173403627855e-01,1.586833850623752937e+02
1.434928174463683259e+00,2.251556406279801248e+00,6.114654838351972488e-02,-6.773806320332320663e-01,1.557921503637092198e-01,7.189466497809906542e-01,1.601703034154178908e+02
1.406109834336375819e+00,2.044284892148424237e+00,2.899113131206456084e-01,-6.931522551609332616e-01,1.877463202231541839e-01,6.959103896393395994e-01,1.616572217684604880e+02
1.380163765303551671e+00,1.844410970921555259e+00,5.304825594260423882e-01,-7.092364573240915737e-01,2.229091940289784912e-01,6.688012700494244678e-01,1.631441401215030851e+02
1.358370478462040953e+00,1.653297614056650433e+00,7.805492094224268929e-01,-7.252957228329891537e-01,2.615053022125918281e-01,6.368367854912848625e-01,1.646310584745456822e+02
1.342037328526608286e+00,1.472334854456677666e+00,1.037839160254415471e+00,-7.408283930333369183e-01,3.036717082774912368e-01,5.991300240077055417e-01,1.661179768275882793e+02
1.332504138725121745e+00,1.302945308839389416e+00,1.300109957964072249e+00,-7.551228083347589770e-01,3.493899669700820665e-01,5.547217278178958599e-01,1.676048951806308764e+02
1.331148999141278377e+00,1.146589794516553740e+00,1.565139593061467327e+00,-7.672170753948889255e-01,3.983953341065317177e-01,5.026520834380957536e-01,1.690918135336734736e+02
1.339394263263427920e+00,1.004773062432407826e+00,1.830717380007164552e+00,-7.758831174559320809e-01,4.500697435699392290e-01,4.420889208855538488e-01,1.705787318867160707e+02
1.358712768472022825e+00,8.790496684106223757e-01,2.094634883039042439e+00,-7.796640022684289129e-01,5.033401835880022546e-01,3.725220841136420713e-01,1.720656502397586678e+02
1.390633102067381888e+00,7.706403887277764042e-01,2.354549565607620298e+00,-7.769982343873489405e-01,5.566248260425925576e-01,2.940111337891749832e-01,1.735525685928012649e+02
1.436741499367038433e+00,6.800472354529613073e-01,2.607847889655109608e+00,-7.664511264326440143e-01,6.078853004112031444e-01,2.074322355231038306e-01,1.750394869458438620e+02
1.498774895457560818e+00,6.080171036676158547e-01,2.851953837158600180e+00,-7.470301042468354691e-01,6.548338970059869313e-01,1.146236916213857898e-01,1.765264052988864591e+02
1.578432140348038581e+00,5.564702652405818517e-01,3.084672531999794742e+00,-7.184958222716134602e-01,6.952900662372675233e-01,1.831603587062575339e-02,1.780133236519290563e+02
1.676192024931455027e+00,5.264643332110688911e-01,3.304399695448859031e+00,-6.815364072199645573e-01,7.275932143074084202e-01,-7.820639441577881268e-02,1.795002420049716534e+02
1.741406641701837454e+00,5.208693097680804351e-01,3.421460863980944733e+00,-6.377022128962936964e-01,7.509171266525719313e-01,-1.716372819844669551e-01,1.803456471324009556e+02
1.871337665087343449e+00,5.287516437932555657e-01,3.612976097553771027e+00,-5.891077877430802578e-01,7.653591225681455334e-01,-2.591860874394543157e-01,1.818325654854435527e+02
2.014640838976978987e+00,5.516027046092882857e-01,3.789494036979972780e+00,-5.380226892109771786e-01,7.717882649389891103e-01,-3.389313499761461013e-01,1.833194838384861498e+02
2.169276672057001143e+00,5.864733269778966696e-01,3.950341093119105196e+00,-4.865070333366368072e-01,7.715481128379864106e-01,-4.099078141364547179e-01,1.848064021915287469e+02
2.333232210653464200e+00,6.304780626878545569e-01,4.094779353770906738e+00,-4.361904035315538608e-01,7.661448527118076557e-01,-4.719745719105881698e-01,1.862933205445713440e+02
2.504513102185379925e+00,6.807831295094479707e-01,4.222003554820228821e+00,-3.882056110887037170e-01,7.570115736981389842e-01,-5.255757612431466441e-01,1.877802388976139412e+02
2.681135652386350543e+00,7.345946285655562402e-01,4.331137774929030293e+00,-3.432319632056718417e-01,7.453759895735374563e-01,-5.714949287624958574e-01,1.892671572506565383e+02
2.861118845095750984e+00,7.891469817060607905e-01,4.421231840208471375e+00,-3.015904699367215058e-01,7.322148247232787011e-01,-6.106591839142401223e-01,1.907540756036991354e+02
3.042476292929206405e+00,8.416915415985559701e-01,4.491257424112768959e+00,-2.633479173750001290e-01,7.182629375443394526e-01,-6.440079401408231874e-01,1.922409939567417325e+02
3.223208086525294114e+00,8.894853281837145076e-01,4.540103826546400434e+00,-2.284069954085887477e-01,7.040486805138054249e-01,-6.724178016049178197e-01,1.937279123097843296e+02
3.401292509323972979e+00,9.297798458924199094e-01,4.566573414859504076e+00,-1.965749253577828148e-01,6.899366463568314956e-01,-6.966675840990957935e-01,1.952148306628269268e+02
3.574677583957470262e+00,9.598099365880160549e-01,4.569376708018538125e+00,-1.676113644082297682e-01,6.761678284459223809e-01,-7.174283924517744770e-01,1.967017490158695239e+02
3.603922233687606447e+00,9.629724228831275656e-01,4.565609789271094954e+00,-1.412596212863092282e-01,6.628931826353635648e-01,-7.352675348535436806e-01,1.969620822817463193e+02
3.763287746855852323e+00,9.687141619689083605e-01,4.519553161254814100e+00,-1.172657095530345306e-01,6.501998563493981420e-01,-7.506589772767962021e-01,1.984490006347889164e+02
3.913175580710814838e+00,9.632751598070072863e-01,4.449184440989535361e+00,-9.538910347163319370e-02,6.381308366991572667e-01,-7.639960433094608039e-01,1.999359189878315135e+02
4.051376147378570991e+00,9.489880171660801667e-01,4.355392142748985229e+00,-7.540811051478620020e-02,6.266992544895717554e-01,-7.756040621933363299e-01,2.014228373408741106e+02
4.175647686457504726e+00,9.281644315855641647e-01,4.238968635857198741e+00,-5.712190434617872570e-02,6.158985870302938759e-01,-7.857518810273084187e-01,2.029097556939167077e+02
4.283706865360318972e+00,9.031049834053612724e-01,4.100613397066277699e+00,-4.035058424030640162e-02,6.057098217322965938e-01,-7.946618414196665592e-01,2.043966740469593049e+02
4.374060410629226681e+00,8.761006665572264041e-01,3.941583072250447017e+00,-4.102748850827018373e-02,6.598969328400355883e-01,-7.502351519457198803e-01,2.058835924000019020e+02
4.443571746883450579e+00,8.506034546246802330e-01,3.772251855794487518e+00,-4.156999692557256793e-02,7.200953712876188018e-01,-6.926287545328698725e-01,2.073039668097006540e+02
4.499634331626547024e+00,8.264113500463671214e-01,3.579746654651006832e+00,-4.183935515962738938e-02,7.852040542479249430e-01,-6.178220306467293588e-01,2.087908851627432512e+02
4.539811529130868273e+00,8.068525697547138664e-01,3.374971100311451533e+00,-4.162617402450229792e-02,8.522747421085635766e-01,-5.214355430922056334e-01,2.102778035157858483e+02
4.564876550393247356e+00,7.940438088319342613e-01,3.160881492567158890e+00,-4.065229211916368546e-02,9.156298173526444817e-01,-3.999617840747051178e-01,2.117647218688284454e+02
4.575553538867571213e+00,7.901102231208770865e-01,2.940396787818460478e+00,-3.862364438084125301e-02,9.666682914115842795e-01,-2.531020119915103894e-01,2.132516402218710425e+02
4.572479334723579036e+00,7.970442231340836292e-01,2.716413105127697847e+00,-3.535769748063807144e-02,9.956263061814880633e-01,-8.647596005985447309e-02,2.147385585749136396e+02
4.556162157771871613e+00,8.165499701123730691e-01,2.491819025779977270e+00,-3.093624623199950005e-02,9.956644880021929822e-01,8.772215227868004894e-02,2.162254769279562368e+02
4.527023711335653289e+00,8.499126463517417962e-01,2.269486999008098138e+00,-2.574459340086271419e-02,9.667795081828006731e-01,2.543120100751169455e-01,2.177123952809988339e+02
4.485437906454484924e+00,8.971039902848116920e-01,2.052100934220849382e+00,-2.031974800433300823e-02,9.158053949307345398e-01,4.011079486332849164e-01,2.191993136340414310e+02
4.431720352328500923e+00,9.563239995148075101e-01,1.842020508780774168e+00,-1.512921052018525829e-02,8.525035457005474271e-01,5.225024512449971681e-01,2.206862319870840281e+02
4.366120410069163071e+00,1.025058649565506075e+00,1.641471639561602247e+00,-1.045160768945021558e-02,7.854750836984669693e-01,6.188050232388164762e-01,2.221731503401266252e+02
4.288820748458852528e+00,1.100831621968227036e+00,1.452719366824581249e+00,-6.386867269598829437e-03,7.203991669197026271e-01,6.935302792437249009e-01,2.236600686931692223e+02
4.199938330259374908e+00,1.181194559656714160e+00,1.278077151361084240e+00,-2.921969300973786213e-03,6.602259564590087226e-01,7.510613480356923555e-01,2.251469870462118195e+02
4.099525058569210678e+00,1.263717431891520082e+00,1.119916370379059778e+00,8.467482058952190987e-06,6.060582983568790771e-01,7.954202278802481318e-01,2.266339053992544166e+02
4.061808129373032372e+00,1.291490824013582062e+00,1.072794772648169914e+00,1.461051571052391925e-05,4.730514124831968203e-01,8.810348239054942576e-01,2.271350759745072594e+02
3.938889275827860192e+00,1.371476870111383972e+00,9.525953092439286563e-01,2.069742279069206923e-05,3.198279009062009459e-01,9.474756531824709560e-01,2.286219943275498565e+02
3.805868758507894078e+00,1.445842657860038738e+00,8.533023431299037176e-01,2.620704091165251929e-05,1.576838042875933765e-01,9.874896542134419253e-01,2.301089126805924536e+02
3.663665831733152078e+00,1.510584085937147103e+00,7.764113168569483081e-01,3.075312632428030919e-05,0.000000000000000000e+00,9.999999995271227071e-01,2.315958310336350507e+02
3.513133524518979200e+00,1.561651181343996386e+00,7.235096244406239441e-01,6.197012756893217206e-02,2.425470717476718024e-02,9.977832492425178224e-01,2.330827493866776479e+02
3.355061797345867181e+00,1.594931857552224219e+00,6.962831270132600059e-01,1.317156150723005903e-01,5.156625779668080195e-02,9.899454115268032650e-01,2.345696677397202450e+02
3.190180323141633245e+00,1.606235395889961337e+00,6.965230726460177602e-01,2.094091564056201060e-01,8.199025939853245293e-02,9.743846276380020432e-01,2.360565860927628421e+02
3.019160901834257338e+00,1.591275584672174892e+00,7.261334487440618268e-01,2.944867028499572048e-01,1.153058668192441794e-01,9.486738843889525041e-01,2.375435044458054392e+02
2.842957948833650050e+00,1.548375651305110789e+00,7.859418021454144254e-01,3.853436172808347160e-01,1.508847539473845700e-01,9.103538255245369193e-01,2.390304227988480363e+02
2.663175467689533615e+00,1.481180705518079455e+00,8.745056408380342816e-01,4.791031846191184940e-01,1.876004587735406459e-01,8.574766506184152703e-01,2.405173411518906335e+02
2.481772538827733410e+00,1.395945862214130528e+00,9.893035081216041693e-01,5.717002411171890897e-01,2.238611228259041186e-01,7.893320163237224074e-01,2.420042595049332306e+02
2.300744992523282573e+00,1.298838043950091947e+00,1.127921628026985923e+00,6.584502875981340653e-01,2.578323411082791283e-01,7.070825288752075055e-01,2.434911778579758277e+02
2.122133149160275511e+00,1.195961116376334843e+00,1.288043997676241670e+00,7.350308378496086537e-01,2.878214440053015188e-01,6.139124398322657328e-01,2.449780962110184248e+02
2.027747152056908586e+00,1.139950778360707018e+00,1.385325413957346985e+00,7.984771809033591738e-01,3.126674320617940928e-01,5.144640594876457307e-01,2.457836033734338912e+02
1.859639512917720339e+00,1.040758747604191292e+00,1.582607184371396247e+00,8.477070939165096686e-01,3.319464598302709901e-01,4.137683297810214600e-01,2.472705217264764883e+02
1.699211973569187961e+00,9.511660191829750532e-01,1.795138051976500559e+00,8.833823120565598153e-01,3.459176019107457201e-01,3.161909287660315537e-01,2.487574400795190854e+02
1.547599027735138355e+00,8.767919553476057892e-01,2.019072439618883053e+00,9.073167460402241646e-01,3.552911257371427767e-01,2.248211251804717314e-01,2.502443584325616825e+02
1.405591324833145972e+00,8.230253487190554162e-01,2.249972624884211125e+00,9.218005506773712110e-01,3.609638063962160026e-01,1.413820188102090647e-01,2.517312767856042797e+02
1.274033683460145339e+00,7.952554567032660282e-01,2.483412702633283509e+00,9.290936884969981380e-01,3.638206095148602826e-01,6.647918536864445838e-02,2.532181951386468768e+02
1.153849955383333903e+00,7.983060219544250158e-01,2.714948635400716181e+00,9.311533018730524525e-01,3.646279292838019437e-01,-3.996396863834392215e-05,2.547051134916894739e+02
1.046036235905862810e+00,8.349744577722133521e-01,2.940129529819071053e+00,9.263518532555906626e-01,3.715024637226375659e-01,-6.211411609242329518e-02,2.561920318447320710e+02
9.516471961219806763e-01,9.055430516322534595e-01,3.154636161318630005e+00,9.171487983554789114e-01,3.772613563876326959e-01,-1.284988352152063029e-01,2.576789501977746681e+02
8.717868299910758179e-01,1.008717416869347572e+00,3.354399577433794022e+00,9.027588110330744264e-01,3.815222834420022302e-01,-1.986637267830999309e-01,2.591658685508172653e+02
8.076068234417597136e-01,1.142597334011070442e+00,3.535551848288732479e+00,8.824823726459195550e-01,3.838913115080812566e-01,-2.717578387422042718e-01,2.606527869038598624e+02
7.603098086828493640e-01,1.305211077833277278e+00,3.694244340778614077e+00,8.558089151295245056e-01,3.840022869921385640e-01,-3.466025740955099299e-01,2.621397052569024595e+02
7.311549483934847160e-01,1.494696751923290545e+00,3.826536233236505602e+00,8.225239886508760589e-01,3.815652201950305855e-01,-4.217372058893680831e-01,2.636266236099450566e+02
7.214581368182024779e-01,1.707997561716391388e+00,3.930343545664082949e+00,7.827946004349466413e-01,3.764146161310842342e-01,-4.955246212780762827e-01,2.651135419629876537e+02
7.325792922078141478e-01,1.939388334950842951e+00,4.007874993651239670e+00,7.372046066856946522e-01,3.685453032077215529e-01,-5.663070963398912916e-01,2.666004603160302509e+02
7.465325726469161927e-01,2.042696972820493340e+00,4.031468966741543092e+00,6.867216194739613755e-01,3.581243014626439014e-01,-6.325823282774765133e-01,2.672321106168591882e+02
8.021244019453473983e-01,2.292274946277484293e+00,4.068847600991784219e+00,6.325969155632882313e-01,3.454735457719925185e-01,-6.931588357595545036e-01,2.687190289699017853e+02
8.820325987544702651e-01,2.541836315023396686e+00,4.092557521858182668e+00,5.762215984935838975e-01,3.310274774525715502e-01,-7.472546276878359039e-01,2.702059473229443824e+02
9.878093694257957802e-01,2.783982452770172422e+00,4.107881453182306686e+00,5.189747770532030513e-01,3.152771186051308572e-01,-7.945221955783390300e-01,2.716928656759869796e+02
1.121062171570777810e+00,3.011273124056751183e+00,4.120067697487466596e+00,4.620972444283581448e-01,2.987146673668339414e-01,-8.350063976950355960e-01,2.731797840290295767e+02
1.282458943808295171e+00,3.218178307182143705e+00,4.132514782759045602e+00,4.066103855688755209e-01,2.817896146245779665e-01,-8.690584603105030448e-01,2.746667023820721738e+02
1.470747784611589726e+00,3.403047145994934741e+00,4.144948516608960354e+00,3.532833449224508371e-01,2.648814910786053689e-01,-8.972339014350602104e-01,2.761536207351147709e+02
1.683758882151646263e+00,3.566241451529496675e+00,4.155092464586481960e+00,2.866116455170247268e-01,2.139809283117848071e-01,-9.338447017426666497e-01,2.776405390881573680e+02
1.919385207122666470e+00,3.708268273547600913e+00,4.160330210043305499e+00,2.156682145151863073e-01,1.598612237578170281e-01,-9.632920690976775058e-01,2.791274574411999652e+02
2.062519561378691968e+00,3.776159174254377859e+00,4.159132428554618066e+00,1.421601551495529914e-01,1.038267974411759137e-01,-9.843833025915078583e-01,2.799580507327185614e+02
2.337713928028902988e+00,3.877503478387107627e+00,4.147400163335955625e+00,6.804323890342542369e-02,4.736851354656109597e-02,-9.965572444992413237e-01,2.814449690857611586e+02
2.630254205786806132e+00,3.958734386285569951e+00,4.123508467640109032e+00,-4.730092251022989698e-03,-8.028414844100014922e-03,-9.999565844487389166e-01,2.829318874388037557e+02
2.938401984411604495e+00,4.020177156031990329e+00,4.085224478600428810e+00,-1.286420174354540868e-01,-6.148078762898299618e-03,-9.916720387697040007e-01,2.844188057918463528e+02
3.260086307201393918e+00,4.062318620983923267e+00,4.031773687839304898e+00,-2.789002340991020845e-01,-3.695350786111363528e-03,-9.603129717972331836e-01,2.859057241448889499e+02
3.349727672410939494e+00,4.068811193101205426e+00,4.013344498606856270e+00,-4.505659764125493627e-01,-6.361226792510675347e-04,-8.927429060190527066e-01,2.863063325898801850e+02
3.691165172322760313e+00,4.075532135104120712e+00,3.930151665472989109e+00,-6.269128930485234896e-01,2.864832695429916226e-03,-7.790840886984906621e-01,2.877932509429227821e+02
3.943533358637841157e+00,4.068050045198892128e+00,3.859035845353602223e+00,-7.819827353949271309e-01,6.395827724908523595e-03,-6.232672740742776218e-01,2.888729081434171917e+02
4.293189655412994021e+00,4.041729925842391324e+00,3.746788802064380253e+00,-8.947975555957701221e-01,9.479187148451908781e-03,-4.463714591131912601e-01,2.903598264964597888e+02
4.638745250099439055e+00,4.000591072649429591e+00,3.621249876157768277e+00,-9.615497324473963880e-01,1.184881923318137353e-02,-2.743751401149892022e-01,2.918467448495023859e+02
4.972839526476856342e+00,3.946224841337873990e+00,3.483698647506975554e+00,-9.921952933668486407e-01,1.351533416734511210e-02,-1.239590075912929135e-01,2.933336632025449831e+02
5.288075509208785441e+00,3.880219673938666070e+00,3.335365390003962371e+00,-9.998929495611769136e-01,1.463179475832167287e-02,0.000000000000000000e+00,2.948205815555875802e+02
5.576989221505191274e+00,3.804168007107815441e+00,3.177436121367633426e+00,-9.976809161031466866e-01,1.459174325018036504e-02,6.648210791263269026e-02,2.963074999086301773e+02
5.832018814290824693e+00,3.719673411735766599e+00,3.011057471297924781e+00,-9.898666654163192913e-01,1.446875379042598074e-02,1.412608928944196762e-01,2.977944182616727744e+02
6.045473340706404741e+00,3.628357995320495188e+00,2.837341387957799110e+00,-9.743783179881404521e-01,1.423249300587395988e-02,2.244645396882097854e-01,2.992813366147153715e+02
6.209501826013793746e+00,3.532193869676560460e+00,2.657438936882663416e+00,-9.488339768750089220e-01,1.384817754986345309e-02,3.154715713120635479e-01,3.007682549677579686e+02
6.319607690770880026e+00,3.433841150196261349e+00,2.472614998960990018e+00,-9.108314379555884077e-01,1.328085352361722295e-02,4.125647955914793497e-01,3.022551733208005658e+02
6.378177055972974685e+00,3.336308354705579404e+00,2.284184966019546792e+00,-8.584785785000329517e-01,1.250318491928938645e-02,5.126969871409787771e-01,3.037420916738431629e+02
6.390946468378471579e+00,3.242587984187675243e+00,2.093450166716283256e+00,-7.910943688938274487e-01,1.150570079854110195e-02,6.115859043123960115e-01,3.052290100268857600e+02
6.363483579598465667e+00,3.155648732009735280e+00,1.901702469492382086e+00,-7.098178868441243905e-01,1.030563840053001085e-02,7.043098475339524267e-01,3.067159283799283571e+02
6.301210093389983946e+00,3.078448820023947707e+00,1.710229585205104375e+00,-6.177485980615473604e-01,8.948878396592542181e-03,7.863247339162336980e-01,3.082028467329709542e+02
6.209424200796708426e+00,3.013949133010408676e+00,1.520320352695299526e+00,-5.194054809522252736e-01,7.501910947928719549e-03,8.544949781531292476e-01,3.096897650860135514e+02
6.093433951725224951e+00,2.965126175954598597e+00,1.333269682980336102e+00,-4.197005594855186539e-01,6.036751597541821501e-03,9.076425496844515717e-01,3.111766834390561485e+02
5.958690754667616218e+00,2.934983902952355894e+00,1.150383528359734786e+00,-3.229208613974268727e-01,4.616059179466634743e-03,9.464147131527466117e-01,3.126636017920987456e+02
5.930861756315059630e+00,2.933183731880439904e+00,1.117178245347560717e+00,-2.321281328284138801e-01,3.284421459835212484e-03,9.726796710763869758e-01,3.129414091235729529e+02
5.771010235043005032e+00,2.945912293497066514e+00,9.454655919031307310e-01,-1.490582986578637137e-01,2.066964825145289897e-03,9.888262492761985545e-01,3.144283274766155500e+02
5.604512121272393621e+00,2.984158508047811686e+00,7.809708102955966735e-01,-7.435155967947360001e-02,9.727828823439991319e-04,9.972316176629648643e-01,3.159152458296581472e+02
5.436318528858854471e+00,3.050402953666970340e+00,6.246728779646099072e-01,-7.896110403326194946e-03,0.000000000000000000e+00,9.999688252343162942e-01,3.174021641827007443e+02
5.277643754642223684e+00,3.141510356121921532e+00,4.832067100456128306e-01,-4.729192055670328187e-02,-5.529970744095460614e-05,9.988811096381795540e-01,3.188242204013585024e+02
5.117509679608510886e+00,3.266151672792085403e+00,3.434739463387948000e-01,-8.705717528321214871e-02,-1.111355101660277758e-04,9.962033105147796164e-01,3.203111387544010995e+02
4.965535559554874467e+00,3.419602602213005493e+00,2.117875733557111340e-01,-1.270052721746356139e-01,-1.672459025019421865e-04,9.919020278579204764e-01,3.217980571074436966e+02
4.821789123866534688e+00,3.599297454988039213e+00,8.808916109005074380e-02,-1.669423603451222760e-01,-2.233589540126794545e-04,9.859666315008723814e-01,3.232849754604862937e+02
4.685170374581528741e+00,3.801733198612445630e+00,-2.761839870704279470e-02,-2.066718958724245436e-01,-2.791986914156056833e-04,9.784102664550226036e-01,3.247718938135288909e+02
4.554584680465359803e+00,4.023508205143262018e+00,-1.352994148693793808e-01,-2.459994182380958183e-01,-3.344918010623627305e-04,9.692699182073863939e-01,3.262588121665714880e+02
4.428938901601111588e+00,4.261308206227329975e+00,-2.348852503155701432e-01,-2.847372810762301421e-01,-3.889742779913850043e-04,9.586055129532309316e-01,3.277457305196140851e+02
4.307137423342502380e+00,4.511892635599006773e+00,-3.262740403186684124e-01,-3.227090711376174870e-01,-4.423976475589850308e-04,9.464981033735977434e-01,3.292326488726566822e+02
4.188078085712261256e+00,4.772081303434783983e+00,-4.093302743889495887e-01,-3.597534765865136319e-01,-4.945344230605766209e-04,9.330472611393385574e-01,3.307195672256992793e+02
4.070647993510649876e+00,5.038741348420156640e+00,-4.838842400542451294e-01,-3.386254254625817861e-01,-4.507359567081697851e-04,9.409211540120578920e-01,3.322064855787418765e+02
3.953719191531407606e+00,5.308774414634747529e+00,-5.497313262547062207e-01,-3.172256505718822894e-01,-4.065028266413429881e-04,9.483499994067053906e-01,3.336934039317844736e+02
3.836144188358926232e+00,5.579104001401039348e+00,-6.066311834912264667e-01,-2.955844351205363929e-01,-3.618992135066348426e-04,9.553165500206896033e-01,3.351803222848270707e+02
3.716751311232257660e+00,5.846662935073331013e+00,-6.543067372808050175e-01,-2.737335184036003288e-01,-3.169917266183090612e-04,9.618055211000979821e-01,3.366672406378696678e+02
3.594339873406768415e+00,6.108380912371854876e+00,-6.924430508701906462e-01,-2.517058689000830074e-01,-2.718489179770986223e-04,9.678037412923242711e-01,3.381541589909122649e+02
3.467675134317503627e+00,6.361172065295535916e+00,-7.206860325391749589e-01,-2.295354384292727090e-01,-2.265407646903775437e-04,9.733002780151475131e-01,3.396410773439548620e+02
3.335483031640462670e+00,6.601922497878861762e+00,-7.386409821883246352e-01,-2.072569015889846322e-01,-1.811381287999756079e-04,9.782865346782160243e-01,3.411279956969974592e+02
3.196444663055860058e+00,6.827477745092783934e+00,-7.458709712451790930e-01,-1.849053851171446883e-01,-1.357122041974511480e-04,9.827563177801901251e-01,3.426149140500400563e+02
3.049190494133469542e+00,7.034630104026512676e+00,-7.418950492374893901e-01,-1.625161920910588864e-01,-9.033396066992837670e-05,9.867058726631748877e-01,3.441018324030826534e+02
2.892294267274571506e+00,7.220105787130947306e+00,-7.261862696730662092e-01,-1.401245259916496511e-01,-4.507359515592887348e-05,9.901338875041023613e-01,3.455887507561252505e+02
2.724266585053252587e+00,7.380551846753045098e+00,-6.981695271240624390e-01,-1.177652196089313680e-01,0.000000000000000000e+00,9.930414659270077049e-01,3.470756691091678476e+02
2.544191590729662167e+00,7.513259405213625897e+00,-6.573788018662292121e-01,-5.908627400109450062e-02,-5.863745373251302850e-02,9.965292074216565155e-01,3.485625874622104448e+02
2.501216489497955831e+00,7.536501945905456523e+00,-6.453841800780223403e-01,0.000000000000000000e+00,-1.168706797253571267e-01,9.931471412739065752e-01,3.488953028182879734e+02
2.297764675950190849e+00,7.611066124205023264e+00,-5.789286745080991503e-01,4.729595185318122286e-02,-1.313901562758418851e-01,9.902018580936472469e-01,3.503822211713305705e+02
2.083667364313916082e+00,7.655488798197690237e+00,-4.993725665819120918e-01,1.001663256237766003e-01,-1.472797209345657055e-01,9.840098531074107369e-01,3.518691395243731677e+02
1.962548688151897203e+00,7.662968512541517008e+00,-4.492258455114997440e-01,1.590724505983376336e-01,-1.645532506022569508e-01,9.734568214239757156e-01,3.526744673513642852e+02
1.731522468458936093e+00,7.647268774797988833e+00,-3.442162957369406251e-01,2.242909410658904812e-01,-1.831349645793337866e-01,9.571599440554870997e-01,3.541613857044068823e+02
1.496265128505578135e+00,7.604403665136707069e+00,-2.278072930324803458e-01,2.957585615259090139e-01,-2.028126545485897936e-01,9.334848153232484513e-01,3.556483040574494794e+02
1.260300253155671291e+00,7.536757141562871354e+00,-1.011052722089040568e-01,3.728736194805027382e-01,-2.231864294477617361e-01,9.006403730712212452e-01,3.571352224104920765e+02
1.027164735329709977e+00,7.446586321941004449e+00,3.482558085141307380e-02,4.542879553136768278e-01,-2.436286601044629074e-01,8.568941180989765316e-01,3.586221407635346736e+02
8.004225749704193538e-01,7.336030646339788852e+00,1.789589611178874773e-01,5.377678221650202817e-01,-2.632823164654526926e-01,8.009295794765457499e-01,3.601090591165772707e+02
5.836788524254696853e-01,7.207120457376091416e+00,3.303022318212569530e-01,6.202399864016493458e-01,-2.811292799459398362e-01,7.323036851099132827e-01,3.615959774696198679e+02
3.805939300890756050e-01,7.061785032475868640e+00,4.878923500546695768e-01,6.981235657714675025e-01,-2.961433772798701680e-01,6.518608647616482843e-01,3.630828958226624650e+02
1.948979373645704227e-01,6.901860099350550115e+00,6.507919138456242925e-01,7.679359185143175281e-01,-3.074991196963268170e-01,5.618885267039677167e-01,3.645698141757050621e+02
3.040559549863146652e-02,6.729094863511673630e+00,8.180853144743440719e-01,8.269866364643341239e-01,-3.147588829624188289e-01,4.658539993449208882e-01,3.660567325287476592e+02
-1.089685596104124216e-01,6.545158574213789215e+00,9.888749782446238923e-01,8.738726907915080888e-01,-3.179534482266651030e-01,3.677664001096114799e-01,3.675436508817902563e+02
-2.191944967040684311e-01,6.351646652899573198e+00,1.162277682279926783e+00,9.085758831849756190e-01,-3.175235590067596037e-01,2.714197007778217929e-01,3.690305692348328535e+02
-2.961104887430887622e-01,6.150086405883379292e+00,1.336707570670235601e+00,9.321840155071406953e-01,-3.141643816930206334e-01,1.798157459969089433e-01,3.705174875878754506e+02
-3.374048596727053373e-01,5.941946997909034245e+00,1.510128546090310886e+00,9.464273595655634530e-01,-3.086510505629859180e-01,9.491987174517700632e-02,3.720044059409180477e+02
-3.446052647371215527e-01,5.728667734249710541e+00,1.681731530459569468e+00,9.532364596143473312e-01,-3.017059259476156940e-01,1.771401450819577034e-02,3.734913242939606448e+02
-3.210865794631691528e-01,5.511686207398813764e+00,1.851672243030623388e+00,9.544346623535990837e-01,-2.939276142560363625e-01,-5.158520016173230582e-02,3.749782426470032419e+02
-2.700863128560811455e-01,5.292447868813420442e+00,2.020099580046899490e+00,9.515800518564663246e-01,-2.857714772182300411e-01,-1.132698888379234797e-01,3.764651610000458390e+02
-1.947179480195088408e-01,5.072411073956804017e+00,2.187156225902723072e+00,9.459189958774344431e-01,-2.775610251799172090e-01,-1.679200123252126142e-01,3.779520793530884362e+02
-9.798373316551359236e-02,4.853052271793002248e+00,2.352979238807185070e+00,9.384039298646729144e-01,-2.695123455115875921e-01,-2.162432889857639207e-01,3.794389977061310333e+02
1.721302506468020896e-02,4.635871356466064519e+00,2.517700613355026373e+00,9.404882834613260689e-01,-2.844083486470793676e-01,-1.859937630454573110e-01,3.809259160591736304e+02
1.480561162361466454e-01,4.422397199919636535e+00,2.681447822313648199e+00,9.415020162006714211e-01,-2.990632786980594315e-01,-1.553547837191935621e-01,3.824128344122162275e+02
2.918049809699906905e-01,4.214193385299478400e+00,2.844344339851085923e+00,9.414265854254860733e-01,-3.134222618842816277e-01,-1.244285739267741581e-01,3.838997527652588246e+02
4.197687863535075614e-01,4.047040445374871176e+00,2.978959387013836224e+00,9.402546354741228019e-01,-3.274329413742652628e-01,-9.332143040278191581e-02,3.851342643014057785e+02
5.818315135518904446e-01,3.854152648664060710e+00,3.140399449669024623e+00,9.379902563164259632e-01,-3.410464215528629106e-01,-6.214191340337488212e-02,3.866211826544483756e+02
7.492387445087579367e-01,3.671321711309111002e+00,3.301248037642911193e+00,9.346489124891714795e-01,-3.542181175978779684e-01,-3.099896043781132440e-02,3.881081010074909727e+02
9.193101041174600585e-01,3.500309316159988970e+00,3.461683130958538079e+00,9.302570451933813711e-01,-3.669084761464080913e-01,0.000000000000000000e+00,3.895950193605335699e+02
1.089997189259716226e+00,3.342729521599859588e+00,3.621141948453516779e+00,9.209188808085718714e-01,-3.631957902694411544e-01,-1.414115727260101263e-01,3.910819377135761670e+02
1.260572878365508132e+00,3.199834074643448378e+00,3.777535304486910217e+00,8.825563958812832066e-01,-3.480284678262178799e-01,-3.161809508360280963e-01,3.925688560666187641e+02
1.430971922638228033e+00,3.072723567908430820e+00,3.928000232238898715e+00,7.977880143029710824e-01,-3.145530078038980548e-01,-5.143837959306679641e-01,3.940557744196613612e+02
1.601136276157527183e+00,2.962564094688605376e+00,4.069649430935500689e+00,6.580036586537152399e-01,-2.593795367549970310e-01,-7.069324162259698063e-01,3.955426927727039583e+02
1.771015329823544704e+00,2.870592004289271415e+00,4.199559414569145943e+00,4.789636260653488686e-01,-1.887318063065224760e-01,-8.573063339288995444e-01,3.970296111257465554e+02
1.935045815323766627e+00,2.800478082878068875e+00,4.311029187932648554e+00,2.946323618180909931e-01,-1.160094909728400514e-01,-9.485428663870263399e-01,3.984681219526582368e+02
2.104222836881699088e+00,2.748877887692978028e+00,4.408570853930719124e+00,1.320737991015856205e-01,-5.188511380678873658e-02,-9.898810264653680191e-01,3.999550403057008339e+02
2.188464794278538239e+00,2.734090271049807175e+00,4.447335646704407175e+00,5.300273656876602468e-04,0.000000000000000000e+00,-9.999998595354860909e-01,4.006979530274259105e+02
2.355791537750827835e+00,2.726715358583558402e+00,4.504108891748280108e+00,-6.700825643701949219e-02,-0.000000000000000000e+00,-9.977524209789072618e-01,4.021848713804685076e+02
2.520562111485555423e+00,2.740753736963484677e+00,4.540565103898487997e+00,-5.160218229109203580e-02,0.000000000000000000e+00,-9.986677199062744537e-01,4.036717897335111047e+02
2.681156002415884476e+00,2.774577757445668702e+00,4.558523721534343487e+00,-3.617277863027715951e-02,0.000000000000000000e+00,-9.993455508912645335e-01,4.051587080865537018e+02
2.835811878420403609e+00,2.826171847606820720e+00,4.560405597966583180e+00,-2.073106220938186403e-02,0.000000000000000000e+00,-9.997850884363452817e-01,4.066456264395962990e+02
2.982729999895759931e+00,2.893606137417321200e+00,4.548565597550997985e+00,-5.288084097186780512e-03,0.000000000000000000e+00,-9.999860179855420972e-01,4.081325447926388961e+02
3.120065335573405818e+00,2.975028796910047735e+00,4.525302261514140945e+00,1.014510983321466504e-02,0.000000000000000000e+00,-9.999485370490184266e-01,4.096194631456814932e+02
3.245920438429059640e+00,3.068658744442184894e+00,4.492867242594014598e+00,-9.799453675694468069e-02,4.536392669438001346e-01,-8.857812857881359747e-01,4.111063814987240903e+02
3.358338054660663374e+00,3.172778697264907688e+00,4.453474547221628832e+00,-9.503041565947567548e-02,4.130991838242074055e-01,-9.057142399362841934e-01,4.125932998517666874e+02
3.455293437412509938e+00,3.285728537719815101e+00,4.409309623179257009e+00,-9.172119655361619939e-02,3.697840897682500017e-01,-9.245793362697651840e-01,4.140802182048092845e+02
3.534686335520174971e+00,3.405898969884765037e+00,4.362538330036950462e+00,-8.805267241397593536e-02,3.237496628089571726e-01,-9.420365612394475674e-01,4.155671365578518817e+02
3.594332626032854971e+00,3.531725442902235113e+00,4.315315829187134966e+00,-8.401716992131026684e-02,2.751246069917541170e-01,-9.577304243815409901e-01,4.170540549108944788e+02
3.631955557631187492e+00,3.661682318546249704e+00,4.269795429965069999e+00,-7.961522030414283635e-02,2.241187809895012761e-01,-9.713043749019680817e-01,4.185409732639370759e+02
3.645176570294643259e+00,3.794277261825720338e+00,4.228137428165774203e+00,-7.485698723819084188e-02,1.710270361563636099e-01,-9.824185382845700421e-01,4.200278916169796730e+02
3.631505654673744310e+00,3.928045834589028118e+00,4.192517973239657358e+00,-6.976322793642024400e-02,1.162272641388415878e-01,-9.907695570104538829e-01,4.215148099700222701e+02
3.592879851315915474e+00,4.047643772949849783e+00,4.167942696766311350e+00,-6.436557602494474839e-02,6.017165573612041213e-02,-9.961106587467833950e-01,4.228466809397521047e+02
3.519505044634701818e+00,4.180007323309729017e+00,4.149522921431011646e+00,-5.870599467609875777e-02,3.371019519842887325e-03,-9.982696241078793387e-01,4.243335992927947018e+02
3.418476133592614374e+00,4.311211481777655230e+00,4.138465453713134679e+00,-5.283535341200723545e-02,-5.362692471568574620e-02,-9.971622628115077713e-01,4.258205176458372989e+02
3.293969731163184367e+00,4.441655343990464466e+00,4.131911281997687979e+00,-4.681121438806085805e-02,-1.102633070670239468e-01,-9.927994325754614380e-01,4.273074359988798960e+02
3.150067856627201568e+00,4.571705993164155046e+00,4.127019878978365419e+00,-4.069504378025764341e-02,-1.659951821119609872e-01,-9.852865131155200684e-01,4.287943543519224932e+02
2.990774631257468119e+00,4.701700615578436881e+00,4.120957542371910698e+00,-3.454915783739837681e-02,-2.203209114544722458e-01,-9.748153936354292393e-01,4.302812727049650903e+02
2.820032665220967072e+00,4.831948377292652808e+00,4.110885763645919511e+00,-2.843374670779260510e-02,-2.728011705761801409e-01,-9.616501668384521695e-01,4.317681910580076874e+02
2.641739201954878880e+00,4.962732071750202145e+00,4.093949577020969066e+00,-2.240428577429770529e-02,-3.230737102779042691e-01,-9.461085697245388282e-01,4.332551094110502845e+02
2.459762085330529757e+00,5.094309546528559274e+00,4.067265840929722209e+00,-1.650955709271079153e-02,-3.708610789205544211e-01,-9.285415955499705110e-01,4.347420277640928816e+02
2.277955614233181603e+00,5.226914916130023236e+00,4.027911403847151739e+00,-1.079038920008959859e-02,-4.159715740066165512e-01,-9.093135966867363917e-01,4.362289461171354787e+02
2.100026704073304273e+00,5.360760014188731937e+00,3.974027635775358114e+00,-5.279111420853800987e-03,-4.582945149146026576e-01,-8.887847144172741354e-01,4.377158644701780759e+02
1.929238149799681334e+00,5.496037456768726237e+00,3.906323544926639801e+00,3.685840016308102022e-07,-4.977913964173884542e-01,-8.672967921378994527e-01,4.392027828232206730e+02
1.768409366773472824e+00,5.632924841784937797e+00,3.827356373981750437e+00,4.565855739354193060e-02,-4.956340972307513582e-01,-8.673304663154631777e-01,4.406897011762632701e+02
1.620239925680716064e+00,5.771587328552183926e+00,3.740031351112297120e+00,9.337796979073788306e-02,-4.922642388537386005e-01,-8.654227139979105976e-01,4.421766195293058672e+02
1.487482956083897356e+00,5.912178323736759999e+00,3.647219398964919979e+00,1.429511251261903204e-01,-4.875440669604044763e-01,-8.613162941665882810e-01,4.436635378823484643e+02
1.372042821675344859e+00,6.054652831948986069e+00,3.552566827130512195e+00,1.940940118591418795e-01,-4.813484784518389237e-01,-8.547696513403612029e-01,4.451504562353910615e+02
1.294820091903063908e+00,6.168069507611023461e+00,3.480400544446842215e+00,2.464448982326990500e-01,-4.735739469703556526e-01,-8.455723676220701091e-01,4.463223747004055895e+02
1.213587510528434610e+00,6.312775233905611572e+00,3.397449903724167886e+00,2.995689186933330750e-01,-4.641478425970167465e-01,-8.335617812528608450e-01,4.478092930534481866e+02
1.147862848368763400e+00,6.457612325856183944e+00,3.329380003215495432e+00,3.529693642075777960e-01,-4.530371419720122805e-01,-8.186390999242152411e-01,4.492962114064907837e+02
1.095540167705213230e+00,6.601799097289021923e+00,3.283363158944980764e+00,4.061057767792554674e-01,-4.402553419770418586e-01,-8.007829493234701612e-01,4.507831297595333808e+02
1.054756005580664624e+00,6.744227895057287370e+00,3.264204493686511555e+00,4.584178645791120998e-01,-4.258664103796599432e-01,-7.800582426620912280e-01,4.522700481125759779e+02
1.024760416991237433e+00,6.883167588361140510e+00,3.271452145088793895e+00,5.093531348930204761e-01,-4.099848846003166791e-01,-7.566186479157895883e-01,4.537569664656185751e+02
1.005372361193564323e+00,7.016562607558419984e+00,3.302079024822120346e+00,5.583952818248937300e-01,-3.927717479163848058e-01,-7.307017608261289210e-01,4.552438848186611722e+02
9.964402814754521609e-01,7.142335690441404594e+00,3.353154007424204330e+00,6.050900339795826088e-01,-3.744263701984296144e-01,-7.026172102066786662e-01,4.567308031717037693e+02
9.978412950024131423e-01,7.258379116946081844e+00,3.421829899137175168e+00,6.490654987758383010e-01,-3.551754371463515247e-01,-6.727290592406205416e-01,4.582177215247463664e+02
1.009480439769922411e+00,7.362545823778128273e+00,3.505331751252188432e+00,6.900449680270569486e-01,-3.352602428580709337e-01,-6.414347290717000716e-01,4.597046398777889635e+02
1.031289974575561930e+00,7.452640361947075576e+00,3.600945469993362735e+00,7.278514243305367337e-01,-3.149238774047524725e-01,-6.091430501453377611e-01,4.611915582308315606e+02
1.063228727882788105e+00,7.526409659580315825e+00,3.706006676188753346e+00,7.624042733008926653e-01,-2.943996901940812982e-01,-5.762538906299607966e-01,4.626784765838741578e+02
1.105281491383702797e+00,7.581533551615556199e+00,3.817889769001615363e+00,7.937098247375876658e-01,-2.739020275056507359e-01,-5.431412278987129971e-01,4.641653949369167549e+02
1.157458453980843682e+00,7.615615037039512814e+00,3.933997148831975821e+00,8.218475891738810102e-01,-2.536197554698657597e-01,-5.101407254910013123e-01,4.656523132899593520e+02
1.200491997145487266e+00,7.623075568214118469e+00,4.015456524410264905e+00,8.469545333967970491e-01,-2.337126144865030175e-01,-4.775420737364376444e-01,4.666794284954702334e+02
1.272686339125299826e+00,7.608885166557528557e+00,4.133234598307886642e+00,8.334903767140805497e-01,-2.292194040106047270e-01,-5.027447232443550407e-01,4.681663468485128305e+02
1.354128236526157769e+00,7.568604017890578461e+00,4.249244476775164259e+00,8.188426194783299250e-01,-2.243742231003686971e-01,-5.283492902748833098e-01,4.696532652015554277e+02
1.443974364780585162e+00,7.501367465954270841e+00,4.361947433487102010e+00,8.029560902237656839e-01,-2.191628460609830187e-01,-5.542825669990114612e-01,4.711401835545980248e+02
1.537071291658543171e+00,7.411977814511374163e+00,4.464915123380305495e+00,7.857816617263343462e-01,-2.135730667786478465e-01,-5.804599256118926354e-01,4.725550065391007024e+02
1.643307953959337375e+00,7.293886938227293726e+00,4.568191350843670229e+00,7.672781515891223814e-01,-2.075952480369069042e-01,-6.067853418520217090e-01,4.740419248921432995e+02
1.758264491281032349e+00,7.154965756316339132e+00,4.666528720907965777e+00,7.474143186712730591e-01,-2.012228898321705428e-01,-6.331517865826068459e-01,4.755288432451858966e+02
1.881338791698124568e+00,6.997719404747626548e+00,4.760078270329809236e+00,7.261708808517202129e-01,-1.944531937815096312e-01,-6.594420423594536951e-01,4.770157615982284938e+02
2.011491352642699404e+00,6.824206639815437292e+00,4.849052080383345675e+00,7.035424603650644038e-01,-1.872875954996190973e-01,-6.855299869702585758e-01,4.785026799512710909e+02
2.147726199091252841e+00,6.636426289872885853e+00,4.933643450635159411e+00,6.795393469282345889e-01,-1.797322327215219451e-01,-7.112823634094165293e-01,4.799895983043136880e+02
2.289086366095764991e+00,6.436325205968929097e+00,5.014027692363442590e+00,6.541889588523702725e-01,-1.717983147508085062e-01,-7.365610260965711475e-01,4.814765166573562851e+02
2.434649597857995840e+00,6.225806029030864330e+00,5.090362848142919283e+00,6.275368810450941970e-01,-1.635023592747837096e-01,-7.612256179607822526e-01,4.829634350103988822e+02
2.583524244358379462e+00,6.006734804169211017e+00,5.162790340548368384e+00,5.996473684872395404e-01,-1.548662662863977413e-01,-7.851365951430613332e-01,4.844503533634414794e+02
2.734845337577805235e+00,5.780948472173363939e+00,5.231435552639323028e+00,5.706032255970902023e-01,-1.459172060367559531e-01,-8.081584794584680820e-01,4.859372717164840765e+02
2.887770830301847891e+00,5.550262267882152045e+00,5.296408342608669884e+00,5.405050055222273553e-01,-1.366873084002437067e-01,-8.301631880104740624e-01,4.874241900695266736e+02
3.041477981375840578e+00,5.316477054845592853e+00,5.357803494707846781e+00,5.094695166569166433e-01,-1.272131540309711650e-01,-8.510332690552466772e-01,4.889111084225692707e+02
3.195159872091910103e+00,5.081386625540789126e+00,5.415701108299528777e+00,4.776276726327371436e-01,-1.175350819958566051e-01,-8.706648671191815625e-01,4.903980267756118678e+02
3.348022039136829608e+00,4.846784996367371257e+00,5.470166926634566273e+00,4.451217713912749008e-01,-1.076963426085650738e-01,-8.889702505833545487e-01,4.918849451286544650e+02
3.499279210216867053e+00,4.614473726725827341e+00,5.521252606702449661e+00,4.121023328768778637e-01,-9.774213627167305241e-02,-9.058797613560448658e-01,4.933718634816970621e+02
3.648152129106781327e+00,4.386269291675999327e+00,5.568995931262964660e+00,3.787246579630527132e-01,-8.771858775214867732e-02,-9.213430863763711898e-01,4.948587818347396592e+02
3.793864457447620353e+00,4.164010537984390581e+00,5.613420963929621976e+00,3.451452894176756936e-01,-7.767170940908614540e-02,-9.353297999904949256e-01,4.963457001877822563e+02
3.935639741146106818e+00,3.949566253799290827e+00,5.654538147941336135e+00,3.115185571005075760e-01,-6.764640604583532779e-02,-9.478291788772382764e-01,4.978326185408248534e+02
4.072698429708774270e+00,3.744842882744618073e+00,5.692344349027383288e+00,2.779933746580295351e-01,-5.768556855726053589e-02,-9.588493410471042866e-01,4.993195368938674505e+02
4.204254937280857085e+00,3.551792413898301692e+00,5.726822842541800185e+00,2.447104264354164338e-01,-4.782929429550612788e-02,-9.684158021227196045e-01,5.008064552469100477e+02
4.329514734556113353e+00,3.372420479922903613e+00,5.757943244814495820e+00,2.117998454684112686e-01,-3.811426042009285337e-02,-9.765695718238339706e-01,5.022933735999526448e+02
4.447671461080385136e+00,3.208794696548934233e+00,5.785661388437132402e+00,1.793794413051272296e-01,-2.857326393591696004e-02,-9.833649295277459013e-01,5.037802919529952419e+02
4.557904047792217916e+00,3.063053277677882935e+00,5.809919140972168883e+00,1.475534949635607107e-01,-1.923493007525305457e-02,-9.888670201746232458e-01,5.052672103060378390e+02
4.659373839929634720e+00,2.937413961578038357e+00,5.830644166340865020e+00,1.164121016247542245e-01,-1.012358028009525436e-02,-9.931494025158653649e-01,5.067541286590804361e+02
4.751221710685610056e+00,2.834183284997104035e+00,5.847749627910689085e+00,8.603101246776517774e-02,-1.259243021396044392e-03,-9.962916637214145332e-01,5.082410470121230333e+02
4.832565156219808422e+00,2.755766243515649361e+00,5.861133832063447180e+00,5.647190671665564682e-02,7.342214639181606634e-03,-9.983771910635665936e-01,5.097279653651656304e+02
4.893677750162894746e+00,2.711083150060722424e+00,5.869476185784562539e+00,2.778301354199985349e-02,1.566885954432412076e-02,-9.994911660435550349e-01,5.110267350256534087e+02
4.951374595843713422e+00,2.689666624665448591e+00,5.875067274596625921e+00,0.000000000000000000e+00,2.371239420780988857e-02,-9.997188216498343882e-01,5.125136533786960626e+02
4.985177690233328462e+00,2.697370440066331643e+00,5.876237879435539213e+00,-1.741718878752641919e-02,0.000000000000000000e+00,-9.998483092623299262e-01,5.136398613158847866e+02
5.016589579790209363e+00,2.739058788975093695e+00,5.873816130961817983e+00,-3.885168284312466580e-02,8.036028466640794980e-04,-9.992446652160430487e-01,5.151267796689273837e+02
5.035515273968547589e+00,2.810549500874942819e+00,5.867682645703827582e+00,-6.046687400808787444e-02,1.614285091987104591e-03,-9.981688991505054398e-01,5.166136980219699808e+02
5.042995983599241505e+00,2.909775279889327049e+00,5.858151223494280302e+00,-8.223425369356172909e-02,2.430985588085452388e-03,-9.966100630780994063e-01,5.181006163750125779e+02
5.040011407953895350e+00,3.034776086255437377e+00,5.845521716873691709e+00,-1.041239182546549319e-01,3.252589732953979369e-03,-9.945590129838082216e-01,5.195875347280551750e+02
5.027484516584819652e+00,3.183691470274505164e+00,5.830081261871838727e+00,-1.261047450693152661e-01,4.077935976322623855e-03,-9.920085502197931726e-01,5.210744530810977722e+02
5.006286043869802249e+00,3.354753284360626697e+00,5.812105456592720820e+00,-1.481445904265798474e-01,4.905823154764873788e-03,-9.889535445239655553e-01,5.225613714341403693e+02
4.977238717427280079e+00,3.546278745081060446e+00,5.791859492440651458e+00,-1.702105067087494872e-01,5.735018563820597562e-03,-9.853910355630517426e-01,5.240482897871829664e+02
