1.331558215771027065e+00,6.997926896548940512e+00,1.503615429536991011e+00,5.977845728395427827e-01,-1.142483741445003143e-01,7.934739526162051249e-01,1.651988882762671267e+02
1.227604538153320490e+00,7.123231519198083284e+00,1.691500853698047147e+00,6.420676366028803539e-01,-1.682960627105952456e-01,7.479475819222246580e-01,1.664360196224676258e+02
1.141586885418969910e+00,7.244808371191282070e+00,1.883362731413187108e+00,6.884593023726224281e-01,-2.304009621535741126e-01,6.877057405717285077e-01,1.676433491515124956e+02
1.069271950549418815e+00,7.368634543862653707e+00,2.086780797858049041e+00,7.342690371682039085e-01,-3.001755702507636347e-01,6.088871883039645994e-01,1.688804804977129947e+02
1.013179999029572675e+00,7.491662217180300232e+00,2.295305614155313201e+00,7.750046308492328784e-01,-3.755752822787691847e-01,5.082430811171626539e-01,1.701176118439134939e+02
9.733582947553348630e-01,7.613864761818485150e+00,2.507030274354877353e+00,8.045499055424825130e-01,-4.522557915784358729e-01,3.849209639333053823e-01,1.713547431901139930e+02
9.498719036425401496e-01,7.735214719484043044e+00,2.720049731460427722e+00,8.166001726142341210e-01,-5.237709059896054065e-01,2.425452455218017889e-01,1.725918745363144922e+02
9.428037589676215857e-01,7.855683699940467335e+00,2.932459690680796704e+00,8.072805146441918156e-01,-5.832735003251681150e-01,8.994550847171059460e-02,1.738290058825149913e+02
9.522547457656523884e-01,7.975242277046130646e+00,3.142355503121188942e+00,7.773143441295958800e-01,-6.261448475047322049e-01,-6.103310866776991139e-02,1.750661372287154904e+02
9.783438043215839652e-01,8.093859883642725350e+00,3.347831059266928921e+00,7.317668614896473134e-01,-6.516325476473426859e-01,-1.997305266408336277e-01,1.763032685749159896e+02
1.021208052816243939e+00,8.211504705129625492e+00,3.546977681616588995e+00,6.775507378492447996e-01,-6.623010479745837786e-01,-3.198160713468165550e-01,1.775403999211164887e+02
1.081002929272352642e+00,8.328143571562550918e+00,3.737883015823436406e+00,6.208316081814370113e-01,-6.621788931675567369e-01,-4.196274868573793282e-01,1.787775312673169879e+02
1.157902352953485536e+00,8.443741848112138015e+00,3.918629919700958641e+00,5.658135973471722924e-01,-6.551500106080295760e-01,-5.006330359228708948e-01,1.800146626135174870e+02
1.251575305467504284e+00,8.557665033050385617e+00,4.087807826195917649e+00,5.147777751600624008e-01,-6.442161773083957543e-01,-5.656760195513100831e-01,1.812517939597179861e+02
1.360655825361170024e+00,8.668083264199609062e+00,4.245024400659334951e+00,4.686357834088970553e-01,-6.314165274707528308e-01,-6.178136218516917522e-01,1.824889253059184853e+02
1.483256067507327414e+00,8.772573288673470415e+00,4.390392836167830382e+00,4.274917643791296684e-01,-6.180226705455006408e-01,-6.597717560488824962e-01,1.837260566521189844e+02
1.617484835976779722e+00,8.868716760601484950e+00,4.524019442534366497e+00,3.910421802066542663e-01,-6.047755019300847801e-01,-6.937813816790131538e-01,1.849631879983194835e+02
1.761445521830096839e+00,8.954098613493259862e+00,4.646003708069131655e+00,3.588157289843061926e-01,-5.920765985521623254e-01,-7.215930806766113204e-01,1.862003193445199827e+02
1.913234022693808045e+00,9.026305444624947327e+00,4.756438357377535731e+00,3.261229439677083008e-01,-5.765327025180059239e-01,-7.491687849511079467e-01,1.874374506907204818e+02
1.984143555862391217e+00,9.055089755603997759e+00,4.803524473543859585e+00,2.909962222513796659e-01,-5.588892832798462162e-01,-7.765075451470935253e-01,1.880004029465774522e+02
2.142606413724964742e+00,9.107638032795378535e+00,4.900092785245045768e+00,2.534457711075252528e-01,-5.390121356296602162e-01,-8.032628204713976316e-01,1.892375342927779514e+02
2.304145010767832069e+00,9.141079768923942694e+00,4.985297746696112142e+00,2.135456279513272271e-01,-5.168015412562078081e-01,-8.290442881644390916e-01,1.904746656389784505e+02
2.466700875029030460e+00,9.153528085279761584e+00,5.059271343462389048e+00,1.714442215014757298e-01,-4.922054532695410711e-01,-8.534287730592862165e-01,1.917117969851789496e+02
2.627982333879460786e+00,9.144152354669623506e+00,5.122260280619826744e+00,1.273715832823719973e-01,-4.652322564700720475e-01,-8.759768417668967189e-01,1.929489283313794488e+02
2.785580656790153320e+00,9.112648421772169272e+00,5.174565503856427995e+00,8.164132498869355881e-02,-4.359613778651891258e-01,-8.962546351701486946e-01,1.941860596775799479e+02
2.937113718574842824e+00,9.058865523945359044e+00,5.216499706680828297e+00,3.464579257133813817e-02,-4.045498297246027386e-01,-9.138594554563074235e-01,1.954231910237804470e+02
3.080257915417911718e+00,8.982963068391358163e+00,5.248405466679928466e+00,-1.315643208492515460e-02,-3.712329522927534931e-01,-9.284465538881605529e-01,1.966603223699809462e+02
3.212777044892194400e+00,8.885305715704536311e+00,5.270644859621904210e+00,-6.126034775467117249e-02,-3.363182631481202445e-01,-9.397537952389490856e-01,1.978974537161814453e+02
3.332550224797434790e+00,8.766358422793288696e+00,5.283589084888219212e+00,-1.091399964069061368e-01,-3.001723549431836724e-01,-9.476207144803051596e-01,1.991345850623819445e+02
3.437766023790849612e+00,8.626757326593637032e+00,5.287634352970668417e+00,-1.562767377496561971e-01,-2.632019943954945207e-01,-9.519991026175178561e-01,2.003717164085824436e+02
3.527117647113179544e+00,8.467379514370433569e+00,5.283217787516511166e+00,-2.021868715382437176e-01,-2.258316405386982251e-01,-9.529535870697889433e-01,2.016088477547829427e+02
3.599545484344714552e+00,8.289217815331278771e+00,5.270794637769255608e+00,-2.464452547019582718e-01,-1.884802112744349278e-01,-9.506523793652605914e-01,2.028459791009834419e+02
3.653978677335254055e+00,8.093257299033044916e+00,5.250815501500654570e+00,-2.887023827808246068e-01,-1.515399168728304158e-01,-9.453499816315912296e-01,2.040831104471839410e+02
3.675288203804616849e+00,7.989843555256639362e+00,5.238542284827351736e+00,-3.286936794922528104e-01,-1.153593867845859461e-01,-9.373647512801666082e-01,2.047019486715381618e+02
3.705244426275615677e+00,7.773064999811677644e+00,5.209784685258505910e+00,-3.662410905712558118e-01,-8.023235897113353832e-02,-9.270546004152637742e-01,2.059390800177386609e+02
3.714477995734760452e+00,7.540946453627201507e+00,5.174583887614114808e+00,-4.012481702405316653e-01,-4.639217100551654149e-02,-9.147937867891431374e-01,2.071762113639391600e+02
3.701874072654672165e+00,7.294454298411424453e+00,5.133377260429852207e+00,-4.336904873859652176e-01,-1.401144148559015784e-02,-9.009529625115951790e-01,2.084133427101396592e+02
3.666300944328197531e+00,7.034550436354940040e+00,5.086598683097245832e+00,-4.636033419589984383e-01,1.679420156749854981e-02,-8.858836809187525807e-01,2.096504740563401583e+02
3.607602378586721947e+00,6.762303771430850041e+00,5.034757581548059413e+00,-4.374748047942647600e-01,1.336674602883456374e-02,-8.991313170337360550e-01,2.108876054025406575e+02
3.527592161048805686e+00,6.478995491478905855e+00,4.978518007827938519e+00,-4.108241157927614573e-01,9.909396376019147246e-03,-9.116607646194710979e-01,2.121247367487411566e+02
3.429064039067339920e+00,6.185999861793123777e+00,4.918620242262264242e+00,-3.837157669451869979e-01,6.431023580784877777e-03,-9.234288560216050712e-01,2.133618680949416557e+02
3.314801589707090379e+00,5.884671338803636687e+00,4.855802439907279222e+00,-3.562185840810433435e-01,2.940760786985713738e-03,-9.343980266895315356e-01,2.145989994411421549e+02
3.187581154755479762e+00,5.576345534387026071e+00,4.790801059385958460e+00,-3.284048649305392198e-01,-5.521152356397143876e-04,-9.445368917404555198e-01,2.158361307873426540e+02
3.050174774894570895e+00,5.262340153467904180e+00,4.724351290738368903e+00,-3.003494327111704276e-01,-4.038306867167917522e-03,-9.538206908783876115e-01,2.170732621335431531e+02
3.008320456613265748e+00,5.169146033271520224e+00,4.704627574071047036e+00,-2.721286339736873616e-01,-7.508618873390978353e-03,-9.622315871006464905e-01,2.174373563817002264e+02
2.863112162307154485e+00,4.850687542604667613e+00,4.637520636461648138e+00,-2.438193118393759407e-01,-1.095407831286297588e-02,-9.697588109125324651e-01,2.186744877279007255e+02
2.714252934204858470e+00,4.529571596568421121e+00,4.570699600342481794e+00,-1.251869460015011815e-01,-9.560917593906185022e-03,-9.920871017232204547e-01,2.199116190741012247e+02
2.564940306458991071e+00,4.207123733700698587e+00,4.505024008377232825e+00,-4.730092251022989698e-03,-8.028414844100014922e-03,-9.999565844487389166e-01,2.211487504203017238e+02
2.479262571253330716e+00,4.020606396765089130e+00,4.467697912866131382e+00,-1.845337107867846826e-01,-1.610013431129671962e-02,-9.826943040734578139e-01,2.218639242673789340e+02
2.334168916477038724e+00,3.699002451215181786e+00,4.404060932392930283e+00,-5.495646843309820277e-03,8.101412537148350301e-02,-9.966978024236168299e-01,2.231010556135794332e+02
2.195391470405936296e+00,3.380011173456515472e+00,4.341289636599796609e+00,1.817595975522094676e-01,1.788453161167087857e-01,-9.669425017035776504e-01,2.243381869597799323e+02
2.065098838730414776e+00,3.065242240001242457e+00,4.278630025210471644e+00,3.532833449224508371e-01,2.648814910786053689e-01,-8.972339014350602104e-01,2.255753183059804314e+02
1.945481173470826608e+00,2.756297884818711186e+00,4.215328162816629032e+00,4.265724805457081215e-01,2.879604845916673983e-01,-8.573882890235984267e-01,2.268124496521809306e+02
1.838752544514635767e+00,2.454773884016633545e+00,4.150629740875546148e+00,5.033786959935112604e-01,3.108206463414268095e-01,-8.062260317229714701e-01,2.280495809983814297e+02
1.746392436147814031e+00,2.163677938105421639e+00,4.081688083524831256e+00,5.814026911198585390e-01,3.324021941551597026e-01,-7.426167868284569984e-01,2.292867123445819288e+02
1.668400754436356603e+00,1.888853785417260678e+00,4.001470937824512575e+00,6.575630663764604478e-01,3.514745426143130458e-01,-6.663906209061214447e-01,2.305238436907824280e+02
1.604080232065000944e+00,1.637574725252787244e+00,3.900847944299936199e+00,7.283561800537065034e-01,3.668328119299011925e-01,-5.787322032418571460e-01,2.317609750369829271e+02
1.600590562823572816e+00,1.623187612602577268e+00,3.893996352571795772e+00,7.904766482970347896e-01,3.775554587946117757e-01,-4.822847126246864180e-01,2.318358772517000830e+02
1.549296555147155585e+00,1.401552546835982183e+00,3.766199738953868614e+00,8.414985332349294023e-01,3.832237407735452628e-01,-3.808146308520629630e-01,2.330730085979005821e+02
1.510399535846807639e+00,1.212558647322437011e+00,3.609744396256303389e+00,8.803275050550412040e-01,3.839997642451861148e-01,-2.785097213800767912e-01,2.343101399441010813e+02
1.483321326084848568e+00,1.057348758462442362e+00,3.426017894945923903e+00,9.072402300361950278e-01,3.805313990509878730e-01,-1.791954780126158442e-01,2.355472712903015804e+02
1.467219737103421018e+00,9.362677379841871650e-01,3.217161680783434896e+00,9.235566600951048422e-01,3.737451862054047558e-01,-8.577663657583109447e-02,2.367844026365020795e+02
1.459981430598165986e+00,8.476676851705049476e-01,2.986065825653549055e+00,9.311533018730524525e-01,3.646279292838019437e-01,-3.996396863834392215e-05,2.380215339827025787e+02
1.462403767004648580e+00,7.896600942241218668e-01,2.738003403389887680e+00,9.157953511226769594e-01,4.015150782373905769e-01,-1.022334632666046551e-02,2.392586653289030778e+02
1.483846313434964648e+00,7.647215362675651162e-01,2.481923735583412949e+00,8.966897021494469877e-01,4.421304000387784039e-01,-2.163994964609962032e-02,2.404957966751035769e+02
1.534987688479813484e+00,7.780258272475131243e-01,2.228249964846495956e+00,8.728740303021436109e-01,4.867287087822447234e-01,-3.443967582979406278e-02,2.417329280213040761e+02
1.548630447990155146e+00,7.848939679411280901e-01,2.178557795922349438e+00,8.431635382831068615e-01,5.354412598685707181e-01,-4.876376667434246387e-02,2.419791770985472681e+02
1.634939292830042135e+00,8.432544976152330785e-01,1.938811208373760087e+00,8.061410971273579307e-01,5.881731683446780323e-01,-6.472136866354726015e-02,2.432163084447477672e+02
1.755778661697377840e+00,9.497944735631840274e-01,1.723225623212356838e+00,7.601908861129167416e-01,6.444594075014602463e-01,-8.235222373272840790e-02,2.444534397909482664e+02
1.911053273773931638e+00,1.107079763201042955e+00,1.541259514932002972e+00,7.036136128137253642e-01,7.032856608685341682e-01,-1.015734368815292971e-01,2.456905711371487655e+02
2.096426203171663172e+00,1.313243789533018901e+00,1.398781986461391957e+00,6.348688644913024204e-01,7.629086579897287335e-01,-1.221143090052739660e-01,2.469277024833492646e+02
2.135126576813156873e+00,1.358045272210203658e+00,1.375177096883594574e+00,5.529731890564890673e-01,8.207564329063465891e-01,-1.434556726921115410e-01,2.471683908649885097e+02
2.339907036278717101e+00,1.608961604822040092e+00,1.273092239143763571e+00,4.580154670740500533e-01,8.735333452649056696e-01,-1.648069374487707017e-01,2.484055222111890089e+02
2.549184605717564889e+00,1.896700101175443187e+00,1.206404206080712083e+00,3.516292969768137766e-01,9.176445475297755339e-01,-1.851629603794050782e-01,2.496426535573895080e+02
2.753466552027096004e+00,2.215032325007245451e+00,1.170507271734076316e+00,2.371518356449581477e-01,9.499272919228842760e-01,-2.034628882874763012e-01,2.508797849035900072e+02
2.949907805657691284e+00,2.556684540291792374e+00,1.157631447335778052e+00,1.192399051804919896e-01,9.684530448077005582e-01,-2.188162357213031539e-01,2.521169162497905063e+02
3.138948864463135369e+00,2.913824662567481738e+00,1.157969623565116235e+00,2.981362338943397208e-03,9.730198100520839333e-01,-2.307023205882644257e-01,2.533540475959910054e+02
3.320962676523795842e+00,3.278609500925236730e+00,1.161416088298985239e+00,-1.071346415524497969e-01,9.650792290301011267e-01,-2.390486357921625948e-01,2.545911789421915046e+02
3.495291405945288865e+00,3.644806797844037050e+00,1.162277203895348832e+00,-2.079415858885795276e-01,9.471766743609744132e-01,-2.441651990039267472e-01,2.558283102883920037e+02
3.659864765519543539e+00,4.009292023454452902e+00,1.161759461876265886e+00,-2.977994289937245798e-01,9.222297832068672152e-01,-2.465922282985137104e-01,2.570654416345925029e+02
3.812751141605270622e+00,4.370332000673823991e+00,1.161641008619791915e+00,-3.763720913631032339e-01,8.929520600126369390e-01,-2.469426398217852703e-01,2.583025729807930020e+02
3.952559101802672448e+00,4.726086860597728645e+00,1.161781315748431354e+00,-4.442151562000279386e-01,8.615450337532485348e-01,-2.457906625917641863e-01,2.595397043269935011e+02
4.077868823878485038e+00,5.074719788857141367e+00,1.162040004733706278e+00,-5.023717721540094105e-01,8.296226150550463085e-01,-2.436163359302212505e-01,2.607768356731940003e+02
4.187230543213877887e+00,5.414395911444779941e+00,1.162276765160404235e+00,-5.520703248082314829e-01,7.982716742265038024e-01,-2.407917992659805440e-01,2.620139670193944994e+02
4.237661372963319906e+00,5.584564948042795685e+00,1.162276726832345730e+00,-5.945363238514551618e-01,7.681648700254946061e-01,-2.375905976252272733e-01,2.626457687295102801e+02
4.324656272335655416e+00,5.909878099776380900e+00,1.158603943648262691e+00,-6.308940661769858460e-01,7.396757962908697692e-01,-2.342058787565690359e-01,2.638829000757107792e+02
4.391907480239041206e+00,6.221561691529665872e+00,1.143716048337679814e+00,-6.621269057880017073e-01,7.129750327387287534e-01,-2.307695025838888137e-01,2.651200314219112784e+02
4.437627956704918830e+00,6.517989163188137702e+00,1.110888083753291511e+00,-7.563665935913105320e-01,6.349838855772743651e-01,-1.571783736913707485e-01,2.663571627681117775e+02
4.447419791576250780e+00,6.602186037599504509e+00,1.098021922022856200e+00,-8.351919860094663139e-01,5.440521584196161831e-01,-8.038404956532353707e-02,2.667192010517378549e+02
4.467997618411340355e+00,6.880862253174745646e+00,1.043245945584078127e+00,-8.306846407095735962e-01,5.488329637270814576e-01,-9.351687342803312319e-02,2.679563323979383540e+02
4.465487884454890199e+00,7.143184817721575541e+00,9.704579511066989683e-01,-8.255645154986793743e-01,5.539121814408499711e-01,-1.078170951234990044e-01,2.691934637441388531e+02
4.441313108713968560e+00,7.389601004644788418e+00,8.831497325588714142e-01,-8.197186054553771140e-01,5.593078155315360789e-01,-1.234349033119608169e-01,2.704305950903393523e+02
4.396875142313581009e+00,7.620540557553741046e+00,7.848046482928088263e-01,-8.130077918361038325e-01,5.650359180820991867e-01,-1.405444473855217147e-01,2.716677264365398514e+02
4.333556589301417183e+00,7.836416077463673524e+00,6.788996447238214715e-01,-8.052597071685873020e-01,5.711086245920259374e-01,-1.593478676586707610e-01,2.729048577827403506e+02
4.252722209001444931e+00,8.037623391643265336e+00,5.689072762835553076e-01,-7.962594257782580343e-01,5.775311335919040001e-01,-1.800797506421226157e-01,2.741419891289408497e+02
4.155720301331500721e+00,8.224541904443867679e+00,4.582977228213284127e-01,-7.857373025499492236e-01,5.842971024731437035e-01,-2.030117913398585827e-01,2.753791204751413488e+02
4.043884076483270640e+00,8.397534930427100974e+00,3.505408056260442273e-01,-7.733531138182591080e-01,5.913816734411446729e-01,-2.284571681203148852e-01,2.766162518213418480e+02
3.918533010348210333e+00,8.556950010088437253e+00,2.491080032397962885e-01,-7.586755064902681589e-01,5.987309710665322804e-01,-2.567736359859839057e-01,2.778533831675423471e+02
3.780974187059524372e+00,8.703119208456152833e+00,1.574744682342492097e-01,-7.411557317744482676e-01,6.062463959007847736e-01,-2.883634663323197955e-01,2.790905145137428462e+02
3.632503630009458195e+00,8.836359396827313972e+00,7.912104612142172033e-02,-7.200949494481275748e-01,6.137613731674660400e-01,-3.236668666806736816e-01,2.803276458599433454e+02
3.474776367217376372e+00,8.957274798797350002e+00,1.749962366563018873e-02,-6.946055031492136544e-01,6.210074914410577129e-01,-3.631430717622362581e-01,2.815647772061438445e+02
3.310179938963225155e+00,9.067057391256430066e+00,-2.400153962931477272e-02,-6.635693949944557746e-01,6.275665264678467192e-01,-4.072295579691795897e-01,2.828019085523443437e+02
3.141795343313284139e+00,9.167446413044736175e+00,-4.205125484216906684e-02,-6.256033303135725143e-01,6.328056187805503052e-01,-4.562647498331772744e-01,2.840390398985448428e+02
2.972562030868433958e+00,9.260031681974361106e+00,-3.459689453374212298e-02,-5.790515227821242394e-01,6.357969514381619502e-01,-5.103543577805940146e-01,2.852761712447453419e+02
2.855409230557839351e+00,9.320604907298449149e+00,-1.628115705473910657e-02,-5.220471012159769719e-01,6.352345475562355404e-01,-5.691606923383064620e-01,2.861351488689685993e+02
2.687961766922498441e+00,9.402371160856285215e+00,2.763345587647767290e-02,-4.527082749903820758e-01,6.293844821378259402e-01,-6.316093661428188177e-01,2.873722802151690985e+02
2.522890118621050615e+00,9.476591530640716243e+00,9.386358253740439972e-02,-3.695496870351561713e-01,6.161422254655649633e-01,-6.955586149351895564e-01,2.886094115613695976e+02
2.361082206457066235e+00,9.543104763391443868e+00,1.807946735351996237e-01,-2.721476341753114592e-01,5.933041933682042801e-01,-7.575789063486954023e-01,2.898465429075700968e+02
2.203428306666759262e+00,9.601740140341213703e+00,2.868242058227334357e-01,-1.619365108871737569e-01,5.591322369733061626e-01,-8.131098991027688738e-01,2.910836742537705959e+02
2.050821964388086283e+00,9.652317347565201544e+00,4.103607517032488161e-01,-4.274168439164032635e-02,5.131213787444751651e-01,-8.572511878619558656e-01,2.923208055999710950e+02
1.904160909730999718e+00,9.694646335469995435e+00,5.498230542806158416e-01,7.949638886044506358e-02,4.566028362277964603e-01,-8.861118293459809836e-01,2.935579369461715942e+02
1.764347977378316390e+00,9.728527167311771251e+00,7.036391088183076015e-01,1.980132297860456858e-01,3.927042644039743235e-01,-8.980947174706197522e-01,2.947950682923720933e+02
1.632292030652181758e+00,9.753749856620380854e+00,8.702452494733249333e-01,3.069738309543367238e-01,3.255390021427123637e-01,-8.943105865375547969e-01,2.960321996385725924e+02
1.508908890984609785e+00,9.770094193395244986e+00,1.048085240874529811e+00,4.027222132284338785e-01,2.590711358222937410e-01,-8.778934818963736175e-01,2.972693309847730916e+02
1.395122273735154295e+00,9.777329558926744824e+00,1.235609374017773154e+00,4.840028814309470517e-01,1.962825236374553528e-01,-8.527686566009871072e-01,2.985064623309735907e+02
1.291864731305098823e+00,9.775214729084501286e+00,1.431273565952551063e+00,5.513891088691525999e-01,1.389157830884407696e-01,-8.226010307733677696e-01,2.997435936771740899e+02
1.200078604504824398e+00,9.763497665901825329e+00,1.633538462736993324e+00,6.064718737516632263e-01,8.765305559169167537e-02,-7.902586970059781724e-01,3.009807250233745890e+02
1.120716983138092981e+00,9.741915297272999652e+00,1.840868545140013968e+00,6.511973226701212036e-01,4.245836385143776648e-02,-7.577198257181376739e-01,3.022178563695750881e+02
1.054744676775329904e+00,9.710193284567429473e+00,2.051731236571073591e+00,6.874653149720969525e-01,2.896082302815267996e-03,-7.262114385064524225e-01,3.034549877157755873e+02
1.003139196697286017e+00,9.668045777951723707e+00,2.264596012719377605e+00,7.169437235926436891e-01,-3.164271411019742297e-02,-6.964125471621365193e-01,3.046921190619760864e+02
9.668917500003957333e-01,9.615175159197812960e+00,2.477933512385115389e+00,7.410153419687038889e-01,-6.180410680096067033e-02,-6.686378058033662919e-01,3.059292504081765856e+02
9.466408960139101048e-01,9.551264048555690778e+00,2.690162766633242608e+00,7.607908150004467629e-01,-8.820031675837892993e-02,-6.429759248484173684e-01,3.071663817543770847e+02
9.419206853729427120e-01,9.475961525053371304e+00,2.899620441782232216e+00,7.771472194562888403e-01,-1.113788824502505714e-01,-6.193843264367381307e-01,3.084035131005775838e+02
9.511421867427757304e-01,9.388888361405424376e+00,3.104633799250426041e+00,7.907717331556369800e-01,-1.318140745883384368e-01,-5.977500445691746878e-01,3.096406444467780830e+02
9.723439572585691471e-01,9.289657319535269409e+00,3.303549562307200649e+00,8.022015484073730107e-01,-1.499093942948787894e-01,-5.779272006359933433e-01,3.108777757929785821e+02
1.003574890529746133e+00,9.177882136667372848e+00,3.494710911775852580e+00,8.118571737107048714e-01,-1.660048366635379635e-01,-5.597591658014887672e-01,3.121149071391790812e+02
1.042892063476075437e+00,9.053177218303540386e+00,3.676456523493451645e+00,8.200689653735591111e-01,-1.803855962439183114e-01,-5.430910869263704255e-01,3.133520384853795804e+02
1.081576368049350201e+00,8.935597387081182674e+00,3.824990994204348738e+00,8.270977529207114154e-01,-1.932906030444572210e-01,-5.277765150972709707e-01,3.144191179400872898e+02
1.130158515795085084e+00,8.787316280754895459e+00,3.986092460676404325e+00,8.331506714836558469e-01,-2.049202015090255680e-01,-5.136805131789929924e-01,3.156562492862877889e+02
1.181289087392188852e+00,8.625017026980833279e+00,4.132978200462076757e+00,8.383932471418796828e-01,-2.154427571035124334e-01,-5.006807181812897856e-01,3.168933806324882880e+02
1.233036052433809537e+00,8.448314987278980226e+00,4.263961170030537318e+00,8.429586107403466144e-01,-2.250002004419564272e-01,-4.886672593695879918e-01,3.181305119786887872e+02
1.283465153579144147e+00,8.256824859066210109e+00,4.377345087025466874e+00,8.469545333967970491e-01,-2.337126144865030175e-01,-4.775420737364376444e-01,3.193676433248892863e+02
1.332155827259135616e+00,8.050940564086818796e+00,4.471934113039344183e+00,7.966642886698749315e-01,-2.718612363393327347e-01,-5.398309729296492110e-01,3.206047746710897854e+02
1.381726640403601047e+00,7.832606075093033304e+00,4.547542827124247289e+00,7.350232547891636381e-01,-3.108268833656887553e-01,-6.026005837172055957e-01,3.218419060172902846e+02
1.434463311123161500e+00,7.604371338213897324e+00,4.604619137895045178e+00,6.616839010219539574e-01,-3.492594904045311921e-01,-6.634698361574066228e-01,3.230790373634907837e+02
1.488936938978435931e+00,7.368469942000031914e+00,4.643867563568313095e+00,5.773777172437337679e-01,-3.855572507558698292e-01,-7.197086757987501970e-01,3.243161687096912829e+02
1.541868589970559755e+00,7.126989079552450868e+00,4.666115953191492416e+00,4.840910424227475306e-01,-4.181031720153604581e-01,-7.686648165466867244e-01,3.255533000558917820e+02
1.589993461455220247e+00,6.882027633343611228e+00,4.672182279521868153e+00,3.849186210971274336e-01,-4.455656511281574916e-01,-8.082752660247789489e-01,3.267904314020922811e+02
1.625768865259764162e+00,6.668509679002357693e+00,4.665686424475995686e+00,2.835790545411255859e-01,-4.671519018284061575e-01,-8.374676235196585328e-01,3.278626904953309236e+02
1.657163695454425101e+00,6.422763951823478479e+00,4.645378355659037339e+00,1.837561179407843359e-01,-4.827109848872478959e-01,-8.562848791077158905e-01,3.290998218415314227e+02
1.674435886147409347e+00,6.179648337598513841e+00,4.611184541247428825e+00,8.851859931564493023e-02,-4.926597871201109924e-01,-8.657082601719606751e-01,3.303369531877319218e+02
1.674343501799568257e+00,5.941320120883874623e+00,4.563890167049931001e+00,3.685840016308102022e-07,-4.977913964173884542e-01,-8.672967921378994527e-01,3.315740845339324210e+02
1.654716988040622727e+00,5.710157114985570992e+00,4.504018524914824795e+00,9.093458571808513136e-02,-5.224655756392764250e-01,-8.477975132024153648e-01,3.328112158801329201e+02
1.615534140042006239e+00,5.488954417103934169e+00,4.431577033645438313e+00,1.944217392303732028e-01,-5.448501443710327408e-01,-8.156828473699208049e-01,3.340483472263334193e+02
1.557847995793415263e+00,5.280714230125982844e+00,4.346311526404702974e+00,3.086283799623649737e-01,-5.621291655859289582e-01,-7.673065386659190246e-01,3.352854785725339184e+02
1.482713842639130197e+00,5.088442601211104588e+00,4.247960386149962630e+00,4.290157983847835976e-01,-5.709602692193774809e-01,-6.999641531601477062e-01,3.365226099187344175e+02
1.391190421854015424e+00,4.915151457233206678e+00,4.136254393645414140e+00,5.483169454621349415e-01,-5.683577796626931855e-01,-6.134476029914598394e-01,3.377597412649349167e+02
1.284341152378999817e+00,4.763860638494284316e+00,4.010916571058192659e+00,6.579802376272602116e-01,-5.529286483484839865e-01,-5.112063347881093955e-01,3.389968726111354158e+02
1.163235375062186217e+00,4.637599932001795544e+00,3.871662021047237445e+00,7.507772922075921507e-01,-5.256898763312760625e-01,-3.999795137606970696e-01,3.402340039573359149e+02
1.065671634419367075e+00,4.559859937741411962e+00,3.760234791133498344e+00,8.230082585890849955e-01,-4.897582340267346290e-01,-2.877399494286049797e-01,3.411514264351642964e+02
9.256269148896387744e-01,4.477338510806602834e+00,3.599048468423416303e+00,8.748963338763836584e-01,-4.491104353178544395e-01,-1.812628529464063443e-01,3.423885577813647956e+02
7.784313795918624823e-01,4.421107317008933890e+00,3.424451677388013149e+00,9.093422788112321964e-01,-4.073193021612426801e-01,-8.477975025484241201e-02,3.436256891275652947e+02
6.290743985449058773e-01,4.387106386257144663e+00,3.237441023324478806e+00,9.302570451933813711e-01,-3.669084761464080913e-01,0.000000000000000000e+00,3.448628204737657938e+02
4.816884439165712295e-01,4.371258933862995910e+00,3.039120872324030831e+00,9.372550361440831201e-01,-3.443823987967912226e-01,-5.434851075716280733e-02,3.460999518199662930e+02
3.393113717101639004e-01,4.369478708047449089e+00,2.830818965642055041e+00,9.409776887708041215e-01,-3.204742871982018126e-01,-1.088908649995955769e-01,3.473370831661667921e+02
2.045196233811272524e-01,4.377676094329506995e+00,2.613972218322818897e+00,9.413501556181731456e-01,-2.954251831511293114e-01,-1.630455325292995417e-01,3.485742145123672913e+02
7.986707821871044666e-02,4.391756132214744923e+00,2.390012581225196886e+00,9.384039298646729144e-01,-2.695123455115875921e-01,-2.162432889857639207e-01,3.498113458585677904e+02
-3.193952980073318931e-02,4.408540881947353718e+00,2.160283965860338995e+00,9.475615211760922696e-01,-2.708177065786781523e-01,-1.696612312519124310e-01,3.510484772047682895e+02
-1.278557156345449530e-01,4.426691295867284381e+00,1.925959118082582577e+00,9.552134835297589888e-01,-2.715507453798681747e-01,-1.175899382029808871e-01,3.522856085509687887e+02
-2.046546127891748224e-01,4.445779606429458575e+00,1.688124206466478316e+00,9.606006752948698102e-01,-2.714843280375223711e-01,-5.951976355006130537e-02,3.535227398971692878e+02
-2.234169976592601803e-01,4.451363870136317402e+00,1.619495750963892311e+00,9.627535331213935565e-01,-2.703353273260395429e-01,4.944214982855886682e-03,3.538773665510238402e+02
-2.754238167716409058e-01,4.470962774656549676e+00,1.379214739397808920e+00,9.604840441692339414e-01,-2.677652930649192520e-01,7.597465844721468242e-02,3.551144978972243393e+02
-3.021115228791079188e-01,4.490478171299748134e+00,1.138261286949078244e+00,9.524169360173677656e-01,-2.633930169737088711e-01,1.533821977831081873e-01,3.563516292434248385e+02
-3.039623676334569091e-01,4.509446365568115844e+00,8.987126018860120968e-01,9.370846673415454964e-01,-2.568254662123644616e-01,2.364593118026581398e-01,3.575887605896253376e+02
-2.826928221765364069e-01,4.527409488985872699e+00,6.629783384649317046e-01,9.131058328813460578e-01,-2.477115368142470408e-01,3.238467731616099798e-01,3.588258919358258368e+02
-2.399972026258589408e-01,4.543917063015577185e+00,4.334703669449177510e-01,8.794434440752062487e-01,-2.358159293344160023e-01,4.134852792364986374e-01,3.600630232820263359e+02
-1.775494910693706796e-01,4.558525591643880936e+00,2.126041747818824268e-01,8.356960407864596485e-01,-2.210980775989987712e-01,5.027203670987114847e-01,3.613001546282268350e+02
-9.700513707750789416e-02,4.570798167283855129e+00,2.800269921365154506e-03,7.823273675849329312e-01,-2.037687560508726903e-01,5.885933944456980260e-01,3.625372859744273342e+02
-2.841627147238563801e-06,4.580304089637711407e+00,-1.935144129923066780e-01,7.207264996178701644e-01,-1.842952373566425495e-01,6.682728321847529740e-01,3.637744173206278333e+02
1.118336746844364460e-01,4.586618497181351728e+00,-3.739051026732163052e-01,6.530408877563366188e-01,-1.633423243835108729e-01,7.394977241232101317e-01,3.650115486668283324e+02
2.368939172723318887e-01,4.589322010949854480e+00,-5.359277766983943092e-01,5.818241670805681665e-01,-1.416651345409560558e-01,8.008817816984578064e-01,3.662486800130288316e+02
3.735788751758625792e-01,4.588000390324755706e+00,-6.771277416399754667e-01,5.096238429992032692e-01,-1.199912034489607898e-01,8.519892310009521408e-01,3.674858113592293307e+02
5.199272469099518457e-01,4.582307794865754680e+00,-7.962319250092805278e-01,4.386438015322157713e-01,-9.892936548991461410e-02,8.931990797247437719e-01,3.687229427054298299e+02
6.732419117501523553e-01,4.572032449721301184e+00,-8.943418536671876584e-01,3.705572935111772215e-01,-7.892414715549729565e-02,9.254503072674667985e-01,3.699600740516303290e+02
8.304600134705877323e-01,4.557036395634119330e+00,-9.737405757495650738e-01,3.064700526993725527e-01,-6.025276324297822866e-02,9.499714265808363312e-01,3.711972053978308281e+02
8.815005062646581457e-01,4.551334332569425101e+00,-9.962172507921096543e-01,2.469861780419100039e-01,-4.304956207964472092e-02,9.680622723053515788e-01,3.715957984992900265e+02
1.039078389355716503e+00,4.530857891464310505e+00,-1.057836256863518898e+00,1.923207662756655223e-01,-2.734155416705185901e-02,9.809511518291168519e-01,3.728329298454905256e+02
1.193419729009036478e+00,4.505387520319513506e+00,-1.105999448000018148e+00,1.424176366447460484e-01,-1.308351630987384696e-02,9.897201818562124664e-01,3.740700611916910248e+02
1.341459839910853047e+00,4.474823222093055719e+00,-1.142960862864172311e+00,9.704995188563640685e-02,-1.869611885047947012e-04,9.952794943554849061e-01,3.753071925378915239e+02
1.480126347959333399e+00,4.439076058429217042e+00,-1.170968032377635470e+00,6.474445415584563490e-02,-1.446489526829357558e-04,9.979018662838256004e-01,3.765443238840920230e+02
1.608721557804622337e+00,4.399329058825231620e+00,-1.191163141577145090e+00,3.233684231297880712e-02,-1.021399997528755707e-04,9.994770223455093916e-01,3.777814552302925222e+02
1.730297305792730000e+00,4.358791260492401953e+00,-1.203025326198001288e+00,-7.069497921097834560e-05,-5.956837023416438096e-05,9.999999957269145590e-01,3.790185865764930213e+02
1.848263858296413487e+00,4.320930125488573914e+00,-1.206012290819508115e+00,-8.572529088099564709e-02,-5.228519977793204282e-05,9.963188103060317546e-01,3.802557179226935204e+02
1.944947097958412696e+00,4.293230651097061923e+00,-1.202265961948539186e+00,-1.742252794103616165e-01,-4.429484104932129905e-05,9.847058190405642009e-01,3.812807986513711285e+02
2.062554809000573641e+00,4.266935852582887989e+00,-1.190227402842359616e+00,-2.635175203913666664e-01,-3.573644576480771383e-05,9.646546092616217205e-01,3.825179299975716276e+02
2.161664284493788557e+00,4.252632399261231377e+00,-1.174097852865789493e+00,-3.513319526357160383e-01,-2.680233423626342398e-05,9.362509590589532804e-01,3.835390701610463111e+02
2.285144423450677031e+00,4.246774116393959630e+00,-1.147626043836246668e+00,-4.354528003844699846e-01,-1.771793624941456069e-05,9.002115630913645195e-01,3.847762015072468103e+02
2.411174268409518540e+00,4.256597318047448120e+00,-1.114568235496877335e+00,-5.139897707847960184e-01,-8.714199827905228180e-06,8.577963134991054561e-01,3.860133328534473094e+02
2.537068764695965317e+00,4.284329919653222518e+00,-1.077251673304075563e+00,-5.855752083478741321e-01,-0.000000000000000000e+00,8.106180823102477895e-01,3.872504641996478085e+02
2.660143802054935058e+00,4.331798913072970159e+00,-1.037932859967697352e+00,-5.432863540352045328e-01,-9.943316283409310075e-05,8.395474540680715192e-01,3.884875955458483077e+02
2.673402724624946547e+00,4.338134329410039847e+00,-1.033573701070171991e+00,-4.992151515237032156e-01,-1.993989425909405123e-04,8.664780393808187986e-01,3.886231904361944203e+02
2.790740902314758465e+00,4.406592403641504951e+00,-9.944875416292656700e-01,-4.536888826245862316e-01,-2.990984132232352263e-04,8.911600912984116718e-01,3.898603217823949194e+02
2.899515454452561869e+00,4.496451972313240120e+00,-9.577955919161258436e-01,-4.070723649537065780e-01,-3.977326487048707783e-04,9.133958241089874530e-01,3.910974531285954185e+02
2.997000333654981308e+00,4.608344900438962277e+00,-9.255499116722762931e-01,-3.597534765865136319e-01,-4.945344230605766209e-04,9.330472611393385574e-01,3.923345844747959177e+02
3.081392762888367720e+00,4.742309415005093065e+00,-8.990927572561407954e-01,-2.495702762209830172e-01,-1.202122191423614789e-01,9.608661194962860863e-01,3.935717158209964168e+02
3.092536529698221237e+00,4.763163326092254124e+00,-8.957367519499117581e-01,-1.291610731158906455e-01,-2.399158476568364062e-01,9.621630855705560759e-01,3.937495581095255375e+02
3.163714782274688275e+00,4.918290508814570750e+00,-8.750520840305126002e-01,-8.509972854394485045e-03,-3.496798190746399082e-01,9.368306167573433596e-01,3.949866894557260366e+02
3.222911362017223169e+00,5.092239240334368588e+00,-8.591767546689369484e-01,-1.699732401352849892e-02,-3.243672269479083159e-01,9.457785116286493432e-01,3.962238208019265358e+02
3.271046477300624478e+00,5.283225794845470169e+00,-8.473253697960509978e-01,-2.554793741652012368e-02,-2.985645491846820043e-01,9.540474374285112802e-01,3.974609521481270349e+02
3.309014623290427615e+00,5.489473765187789844e+00,-8.387148730744874436e-01,-3.414157362012963659e-02,-2.723253799776216844e-01,9.615993138364780091e-01,3.986980834943275340e+02
3.337685622963133092e+00,5.709212971074696163e+00,-8.325640909774278953e-01,-4.275721411958029877e-02,-2.457077610863424300e-01,9.684004940016651686e-01,3.999352148405280332e+02
3.357905632589533784e+00,5.940678366730202775e+00,-8.280932789612276412e-01,-5.137330373761061358e-02,-2.187735890261338079e-01,9.744223419070949799e-01,4.011723461867285323e+02
3.370498112787240430e+00,6.182108947356704576e+00,-8.245236684682369921e-01,-5.996801139290192095e-02,-1.915879244226700306e-01,9.796417226848773696e-01,4.024094775329290314e+02
3.376264766205934187e+00,6.431746653848223083e+00,-8.210770144967114437e-01,-6.851950215163293834e-02,-1.642182206050311066e-01,9.840413882790752798e-01,4.036466088791295306e+02
3.375986442867648041e+00,6.687835275157890003e+00,-8.169751434749761287e-01,-7.700621279358617344e-02,-1.367334923216887710e-01,9.876102446151029390e-01,4.048837402253300297e+02
3.370424014144249192e+00,6.948619347721860073e+00,-8.114395011769428567e-01,-8.540712284330913284e-02,-1.092034482843340787e-01,9.903434910425971127e-01,4.061208715715305289e+02
3.360319216314900714e+00,7.212343051335456501e+00,-8.036907004163448276e-01,-9.370201315508702722e-02,-8.169761286009484536e-02,9.922426279815063088e-01,4.073580029177310280e+02
3.346395464607872849e+00,7.477249100870525744e+00,-7.929480682571259376e-01,-1.018717046917600871e-01,-5.428446252644776593e-02,9.933153340764500072e-01,4.085951342639315271e+02
3.329358638593944431e+00,7.741577633216022214e+00,-7.784291924769366489e-01,-1.098982710619548636e-01,-2.703060166518930774e-02,9.935752193926794540e-01,4.098322656101320263e+02
3.309897839762232064e+00,8.003565088816623430e+00,-7.593494670201770269e-01,-1.177652196089313680e-01,0.000000000000000000e+00,9.930414659270077049e-01,4.110693969563325254e+02
3.288790678727601779e+00,8.261604197445171494e+00,-7.350593413387286335e-01,-7.875138647958604410e-02,-3.907659485333632443e-02,9.961281237181345283e-01,4.123065283025330245e+02
3.274036613228294090e+00,8.434525437835780792e+00,-7.157897328829758710e-01,-3.937569398339047649e-02,-7.815319118257080255e-02,9.961634571852687747e-01,4.131474712339332314e+02
3.252637554765748895e+00,8.684289456391660167e+00,-6.831825937202098409e-01,0.000000000000000000e+00,-1.168706797253571267e-01,9.931471412739065752e-01,4.143846025801337305e+02
3.232362223110708754e+00,8.926858363436263488e+00,-6.445828305428760174e-01,0.000000000000000000e+00,-1.094866492264805619e-01,9.939882663498386117e-01,4.156217339263342296e+02
3.214264956707687304e+00,9.161077942105892546e+00,-5.997426705562663996e-01,0.000000000000000000e+00,-1.020924793652089324e-01,9.947749120565235748e-01,4.168588652725347288e+02
3.199393728310325535e+00,9.385783306597542008e+00,-5.484107155686647195e-01,0.000000000000000000e+00,-9.468938507502079605e-02,9.955068660507140343e-01,4.180959966187352279e+02
3.188791221503458395e+00,9.599798135717033887e+00,-4.903317959403379889e-01,0.000000000000000000e+00,-8.727858735087598574e-02,9.961839429493106746e-01,4.193331279649357271e+02
3.183495895545652488e+00,9.801933893574590329e+00,-4.252468223413264914e-01,0.000000000000000000e+00,-7.986131224532318218e-02,9.968059845358347992e-01,4.205702593111362262e+02
3.184543039611970716e+00,9.990989036949255109e+00,-3.528926352318826898e-01,0.000000000000000000e+00,-7.243878985593504849e-02,9.973728599296290964e-01,4.218073906573367253e+02
3.192965817501126402e+00,1.016574820882909869e+01,-2.730018519784900843e-01,0.000000000000000000e+00,-6.501225330601838326e-02,9.978844657173865373e-01,4.230445220035372245e+02
3.209796303857130884e+00,1.032498141762013510e+01,-1.853027115166721861e-01,0.000000000000000000e+00,-5.758293772056918836e-02,9.983407260467085376e-01,4.242816533497377236e+02
3.236066512942342488e+00,1.046744320150240704e+01,-8.951891647014559306e-02,0.000000000000000000e+00,-5.015207919945537801e-02,9.987415926814962042e-01,4.255187846959382227e+02
3.272809420986464435e+00,1.059187177739642394e+01,1.463052736540900074e-02,0.000000000000000000e+00,-4.272091378981900806e-02,9.990870450190828533e-01,4.267559160421387219e+02
3.321059983124869941e+00,1.069698817398779589e+01,1.274314742671912026e-01,0.000000000000000000e+00,-3.529067645968907152e-02,9.993770900691177905e-01,4.279930473883392210e+02
3.381856145929415636e+00,1.078149534824235900e+01,2.491748046535919581e-01,0.000000000000000000e+00,-2.786260007479053613e-02,9.996117623943168162e-01,4.292301787345397202e+02
3.426382435888493116e+00,1.082574250391305171e+01,3.308693449238073181e-01,-1.219524341551210117e-01,-2.225837294324394672e-02,9.922863339971786933e-01,4.300183656724361754e+02
3.503198761086559809e+00,1.088079311668211169e+01,4.660176595851633352e-01,-2.458626337765900949e-01,-1.612732374740419999e-02,9.691705086006201508e-01,4.312554970186366745e+02
3.586612222815312112e+00,1.091675842320453249e+01,6.114601068814866647e-01,-3.658573084838229184e-01,-9.739436029039399978e-03,9.306199939904628016e-01,4.324926283648371736e+02
3.672380313381505612e+00,1.093538223504429396e+01,7.678596688540528792e-01,-4.766015702913958818e-01,-3.400009820016205390e-03,8.791128386782891546e-01,4.337297597110376728e+02
3.756276353704822490e+00,1.093841659405207167e+01,9.358856931412445901e-01,-5.173437023776281674e-01,1.216229071750510576e-03,8.557768484815729826e-01,4.349668910572381719e+02
3.835056980842071361e+00,1.092738973271001690e+01,1.115785694160832175e+00,-5.634852775677556824e-01,6.606095577870244040e-03,8.260996922076689897e-01,4.362040224034386711e+02
3.867329086927804305e+00,1.091923180542877425e+01,1.196145277400984863e+00,-6.155502273576615169e-01,1.291811111826173669e-02,7.879917766100528187e-01,4.367361369825210886e+02
3.938380661520126669e+00,1.089291654403093013e+01,1.389158806026704607e+00,-6.737400402080976347e-01,2.030705232888167441e-02,7.386893676276266030e-01,4.379732683287215877e+02
4.002554093212097541e+00,1.085479038584309919e+01,1.591951138237724717e+00,-7.375341011428349081e-01,2.890323750075755524e-02,6.746910793195691758e-01,4.392103996749220869e+02
4.059527865124541002e+00,1.080567461688575470e+01,1.803504217419421796e+00,-8.050510212542645316e-01,3.874938298324807212e-02,5.919386273051315817e-01,4.404475310211225860e+02
4.108978682416602801e+00,1.074638455909531309e+01,2.022805076555879822e+00,-8.722342353538302673e-01,4.969468325593611596e-02,4.865571673840713429e-01,4.416846623673230852e+02
4.150581071664031896e+00,1.067773013539174620e+01,2.248845249738967489e+00,-9.322823957301282771e-01,6.126430607511847148e-02,3.565055671554467898e-01,4.429217937135235843e+02
4.184006982089923277e+00,1.060051643295433443e+01,2.480620186290938722e+00,-9.762746711155421142e-01,7.259137066289488016e-02,2.040055377766057942e-01,4.441589250597240834e+02
4.209031874046309518e+00,1.051554181107053587e+01,2.717119796857260461e+00,-9.958869246974996203e-01,8.255818755330875114e-02,3.732799062994663492e-02,4.453960564059245826e+02
4.225640899457158817e+00,1.042359533371184099e+01,2.957318996286237844e+00,-9.873500535932524524e-01,9.019146559131240026e-02,-1.304046441040070392e-01,4.466331877521250817e+02
4.233922327535720065e+00,1.032545876866787538e+01,3.200185978407239951e+00,-9.535556867034752360e-01,9.507008273183037428e-02,-2.858202787151862823e-01,4.478703190983255809e+02
4.233961108104707272e+00,1.022190925414124862e+01,3.444690486901317072e+00,-9.022601484942042172e-01,9.740940632481991102e-02,-4.200452737487503363e-01,4.491074504445260800e+02
4.225838932762002287e+00,1.011371984398118862e+01,3.689803216766367910e+00,-8.422151689092485238e-01,9.780759613619878501e-02,-5.301955143126206860e-01,4.503445817907265791e+02
4.209634296546039600e+00,1.000166004984296642e+01,3.934495216335197387e+00,-7.803402629181154238e-01,9.692726793352006431e-02,-6.177978462246610514e-01,4.515817131369270783e+02
4.185422560141290660e+00,9.886496380640362958e+00,4.177737289498943518e+00,-7.209382806944185651e-01,9.531060469702695714e-02,-6.864137848715327062e-01,4.528188444831275774e+02
4.153276012673101647e+00,9.768992879656174466e+00,4.418499397788391292e+00,-6.661544259570885140e-01,9.333412389991821434e-02,-7.399506889608364890e-01,4.540559758293280765e+02
4.113263935144951589e+00,9.649911659673952258e+00,4.655750061965862052e+00,-6.167396608225004240e-01,9.123355648421246911e-02,-7.818622825918828401e-01,4.552931071755285757e+02
4.065452664574584318e+00,9.530013436492529522e+00,4.888455762780185232e+00,-5.726758345178023513e-01,8.914547116119050929e-02,-8.149205320341290637e-01,4.565302385217290748e+02
4.009905658889119096e+00,9.410058061183489642e+00,5.115580340536568293e+00,-5.335785543036569711e-01,8.714309002340615840e-02,-8.412490762243913789e-01,4.577673698679295740e+02
3.946940578802260013e+00,9.291024156581263682e+00,5.336065866987443229e+00,-5.007666284888454555e-01,8.178430530078363569e-02,-8.617099925139448668e-01,4.590045012141300731e+02
3.896927350164163695e+00,9.204953344764787104e+00,5.493385066918074600e+00,-4.665114086773315960e-01,7.618980439790908055e-02,-8.812276773227790683e-01,4.599110677911729681e+02
3.824344926069008999e+00,9.090495391280631665e+00,5.701282453296011354e+00,-4.309162103383966103e-01,7.037646061144656184e-02,-8.996434701921646182e-01,4.611481991373734672e+02
3.747087377785296880e+00,8.981212356152118659e+00,5.899471407601359019e+00,-3.941097921268444382e-01,6.436530257336865735e-02,-9.168067296733668492e-01,4.623853304835739664e+02
3.666260041967648764e+00,8.878732109034922715e+00,6.086821616038447402e+00,-3.562448369232831258e-01,5.818126617718627491e-02,-9.325795174844464519e-01,4.636224618297744655e+02
3.582976618251793699e+00,8.784681902455899305e+00,6.262196467952439782e+00,-3.174952996717402831e-01,5.185276143155732181e-02,-9.468410773821940296e-01,4.648595931759749647e+02
3.498360401198928660e+00,8.700689438523800945e+00,6.424452395507853630e+00,-2.780526928789177066e-01,4.541106581470409631e-02,-9.594918108479899566e-01,4.660967245221754638e+02
3.413545530879024348e+00,8.628383930082147657e+00,6.572438209325346392e+00,-2.381214761608283770e-01,3.888957130346048369e-02,-9.704564718908423870e-01,4.673338558683759629e+02
3.329678263437681363e+00,8.569397156936396698e+00,6.704994429690824376e+00,-1.979138006173372100e-01,3.232292603397247943e-02,-9.796863559210178263e-01,4.685709872145764621e+02
3.247918263017111062e+00,8.525364517777308748e+00,6.820952612948628868e+00,-1.576439196064952086e-01,2.574612147941280835e-02,-9.871603374527707642e-01,4.698081185607769612e+02
3.169439916430447202e+00,8.497926078413076567e+00,6.919134672687324183e+00,-1.175226055259488422e-01,1.919358060876026964e-02,-9.928847081377611961e-01,4.710452499069774603e+02
3.095433672020139859e+00,8.488727616914424345e+00,6.998352195322912195e+00,-7.775190365042272678e-02,1.269830109297094382e-02,-9.968918670688851069e-01,4.722823812531779595e+02
3.027107404161435866e+00,8.499421666267524600e+00,7.057405749682194696e+00,-3.852051117033325478e-02,6.291100617873853634e-03,-9.992380058185297287e-01,4.735195125993784586e+02
2.965687804903814229e+00,8.531668555120406339e+00,7.095084190185662720e+00,-0.000000000000000000e+00,-0.000000000000000000e+00,-1.000000000000000000e+00,4.747566439455789578e+02
2.924502821506565375e+00,8.568678712820588572e+00,7.110352824138220562e+00,0.000000000000000000e+00,-2.827579636374845384e-03,-9.999960023887095595e-01,4.756764630025709835e+02
2.875170238891085805e+00,8.635432125655013280e+00,7.114368298635831422e+00,0.000000000000000000e+00,-5.655475970289346350e-03,-9.999840076678974121e-01,4.769135943487714826e+02
2.833220305559524199e+00,8.722681729819230512e+00,7.098385724538963437e+00,0.000000000000000000e+00,-8.483621199105628036e-03,-9.999640134381587719e-01,4.781507256949719817e+02
2.798208480244751772e+00,8.828886448516003682e+00,7.063882313024043569e+00,0.000000000000000000e+00,-1.131194748110454611e-02,-9.999360178752362271e-01,4.793878570411724809e+02
2.769686298001217573e+00,8.952520239938126068e+00,7.012324515447121875e+00,0.000000000000000000e+00,-1.414038694361303278e-02,-9.999000197305153437e-01,4.806249883873729800e+02
2.747200983357104498e+00,9.092071076573107646e+00,6.945168875287579979e+00,0.000000000000000000e+00,-1.696887169114118937e-02,-9.998560183314043615e-01,4.818621197335734792e+02
2.730295051044840271e+00,9.246039935916979147e+00,6.863862874335911357e+00,0.000000000000000000e+00,-1.979733381352689545e-02,-9.998040135815997598e-01,4.830992510797739783e+02
2.718505893951773000e+00,9.412939801968985165e+00,6.769845773616990137e+00,0.000000000000000000e+00,-2.262570539408562467e-02,-9.997440059612360264e-01,4.843363824259744774e+02
