2.765541468158687177e+00,7.479442119115483401e+00,7.603251116074972060e+00,-0.000000000000000000e+00,-0.000000000000000000e+00,-1.000000000000000000e+00,1.353390256128396629e+02
2.906531871730400063e+00,7.355619291160904183e+00,7.681818132448102077e+00,0.000000000000000000e+00,8.176764388267177301e-04,-9.999996657025647107e-01,1.367173916782391245e+02
3.044887185640496430e+00,7.216733539883012583e+00,7.744913651663766885e+00,0.000000000000000000e+00,1.635367092574803493e-03,-9.999986627863421962e-01,1.380957577436385861e+02
3.180379007325425889e+00,7.064233704073543230e+00,7.793489850618310122e+00,0.000000000000000000e+00,2.453070321403265017e-03,-9.999969912184727416e-01,1.394741238090380477e+02
3.312778020087456810e+00,6.899522228862948303e+00,7.828447842217273411e+00,0.000000000000000000e+00,3.270784485313193383e-03,-9.999946509701193031e-01,1.408524898744375093e+02
3.430535712726748176e+00,6.739386012231956435e+00,7.848679593879442251e+00,0.000000000000000000e+00,4.088507944164204190e-03,-9.999916420164672859e-01,1.421098179514794424e+02
3.556080774506335640e+00,6.554284863170065201e+00,7.858850025778019166e+00,0.000000000000000000e+00,4.906239057690877856e-03,-9.999879643367258764e-01,1.434881840168789040e+02
3.677809509455402193e+00,6.360883786270425055e+00,7.857752546935354410e+00,0.000000000000000000e+00,5.723976185519208913e-03,-9.999836179141273762e-01,1.448665500822783656e+02
3.795477746199770408e+00,6.160447607672687731e+00,7.846113566642736181e+00,0.000000000000000000e+00,6.541717687183055095e-03,-9.999786027359290896e-01,1.462449161476778272e+02
3.908835014063281488e+00,5.954218014021479100e+00,7.824622420049684557e+00,0.000000000000000000e+00,7.359461922140589883e-03,-9.999729187934123242e-01,1.476232822130772888e+02
4.017623514685445762e+00,5.743417962820601019e+00,7.793933792531200666e+00,0.000000000000000000e+00,8.177207249790752891e-03,-9.999665660818836121e-01,1.490016482784767504e+02
4.121577096028820719e+00,5.529256033550911553e+00,7.754670022193294265e+00,0.000000000000000000e+00,8.994952029489702849e-03,-9.999595446006739330e-01,1.503800143438762120e+02
4.220420224785956798e+00,5.312930734849999226e+00,7.707423288614628554e+00,0.000000000000000000e+00,9.812694620567292275e-03,-9.999518543531400461e-01,1.517583804092756736e+02
4.313866953289066331e+00,5.095634782922635608e+00,7.652757695521761327e+00,0.000000000000000000e+00,1.063043338234350224e-02,-9.999434953466639353e-01,1.531367464746751352e+02
4.401619877104375966e+00,4.878559366274934028e+00,7.591211254722651347e+00,0.000000000000000000e+00,1.144816667414491271e-02,-9.999344675926523651e-01,1.545151125400745968e+02
4.483369079558145565e+00,4.662898411841315927e+00,7.523297778275764180e+00,0.000000000000000000e+00,1.226589285532116332e-02,-9.999247711065376576e-01,1.558934786054740584e+02
4.558791059492721232e+00,4.449852867602373863e+00,7.449508685549493414e+00,0.000000000000000000e+00,1.308361028526140550e-02,-9.999144059077774704e-01,1.572718446708735200e+02
4.627547638589598833e+00,4.240635016873636864e+00,7.370314731527374263e+00,0.000000000000000000e+00,1.390131732341076502e-02,-9.999033720198536868e-01,1.586502107362729816e+02
4.689284844623113457e+00,4.036472839580096839e+00,7.286167662437440740e+00,0.000000000000000000e+00,1.471901232928679755e-02,-9.998916694702733032e-01,1.600285768016724433e+02
4.743631767022668200e+00,3.838614436019819998e+00,7.197501804528520175e+00,0.000000000000000000e+00,1.553669366249593904e-02,-9.998792982905675419e-01,1.614069428670719049e+02
4.790199381124439881e+00,3.648332528862918700e+00,7.104735591581181176e+00,0.000000000000000000e+00,1.635435968274997001e-02,-9.998662585162914063e-01,1.627853089324713665e+02
4.828579337485473744e+00,3.466929059430977844e+00,7.008273036525513255e+00,0.000000000000000000e+00,1.717200874988245030e-02,-9.998525501870233478e-01,1.641636749978708281e+02
4.858342712614017955e+00,3.295739894657147673e+00,6.908505152341271938e+00,0.000000000000000000e+00,1.798963922386518852e-02,-9.998381733463646004e-01,1.655420410632702897e+02
4.879038717440548290e+00,3.136139661539640855e+00,6.805811327237656805e+00,0.000000000000000000e+00,1.880724946482467685e-02,-9.998231280419391798e-01,1.669204071286697513e+02
4.890193359814310803e+00,2.989546726373487839e+00,6.700560658949216375e+00,0.000000000000000000e+00,1.962483783305853102e-02,-9.998074143253919965e-01,1.682987731940692129e+02
4.891308057260665088e+00,2.857428336578789363e+00,6.593113252840483440e+00,0.000000000000000000e+00,2.044240268905194238e-02,-9.997910322523895221e-01,1.696771392594686745e+02
4.881858196175081765e+00,2.741305943539887657e+00,6.483821488384737819e+00,0.000000000000000000e+00,2.125994239349409537e-02,-9.997739818826180125e-01,1.710555053248681361e+02
4.861291633560548497e+00,2.642760725531285271e+00,6.373031258471160143e+00,0.000000000000000000e+00,2.207745530729459879e-02,-9.997562632797827309e-01,1.724338713902675977e+02
4.829027137337118525e+00,2.563439330535121741e+00,6.261083185898970171e+00,0.000000000000000000e+00,2.289493979159995182e-02,-9.997378765116079480e-01,1.738122374556670593e+02
4.784452761164876833e+00,2.505059859554066737e+00,6.148313821336786944e+00,0.000000000000000000e+00,2.371239420780988857e-02,-9.997188216498343882e-01,1.751906035210665209e+02
4.742826133235873876e+00,2.478674868471736126e+00,6.066116618635014390e+00,-3.946919259569254233e-03,1.185712285934288797e-02,-9.999219121840750013e-01,1.761925915251380275e+02
4.672958984182810305e+00,2.464654281137358627e+00,5.953690343125276563e+00,-7.893222081534517071e-03,-0.000000000000000000e+00,-9.999688480373634114e-01,1.775709575905374891e+02
4.590795789150791784e+00,2.472659804934745686e+00,5.843188047923789874e+00,-5.917289950744960246e-03,0.000000000000000000e+00,-9.999824926865664709e-01,1.789493236559369507e+02
4.496618677035866263e+00,2.502366446744621609e+00,5.735968144251489598e+00,-3.941319247582058573e-03,0.000000000000000000e+00,-9.999922329711309343e-01,1.803276897213364123e+02
4.488558690144830443e+00,2.505772884847905058e+00,5.728076309416937129e+00,-1.965333117497486664e-03,0.000000000000000000e+00,-9.999980687310037197e-01,1.804324702064568555e+02
4.371352549157579759e+00,2.565319288933202824e+00,5.628377102690525824e+00,1.064529351364108455e-05,0.000000000000000000e+00,-9.999999999433388798e-01,1.818108362718563171e+02
4.244654324130167744e+00,2.645170321204646680e+00,5.534691434201373106e+00,-4.203323659657252128e-04,-7.298585322104475916e-04,-9.999996453135496788e-01,1.831892023372557787e+02
4.110498536477788178e+00,2.744301260165001644e+00,5.448282633826641685e+00,-8.513125083668800696e-04,-1.459721256284749477e-03,-9.999985722394142407e-01,1.845675684026552403e+02
3.970886645678826099e+00,2.861742150750130609e+00,5.370439623904764481e+00,-1.282294204798170838e-03,-2.189586599149296025e-03,-9.999967807108667284e-01,1.859459344680547019e+02
3.827794524546216604e+00,2.996574582590649349e+00,5.302481452331721634e+00,-1.713276526343893288e-03,-2.919452987689831296e-03,-9.999942707224861449e-01,1.873243005334541635e+02
3.683179822834564021e+00,3.147928601680482164e+00,5.245761931607482609e+00,-2.144258544074302553e-03,-3.649318848768403570e-03,-9.999910422734977766e-01,1.887026665988536251e+02
3.538989246247941534e+00,3.314979745225081320e+00,5.201674400147801691e+00,-2.575239329055622160e-03,-4.379182609240318477e-03,-9.999870953677717500e-01,1.900810326642530868e+02
3.397165777546592658e+00,3.496946189701546359e+00,5.171656622607340381e+00,-3.006217952360057399e-03,-5.109042695971096996e-03,-9.999824300138246969e-01,1.914593987296525484e+02
3.259655866179755446e+00,3.693086002390055356e+00,5.157195846448512810e+00,-3.437193485075805757e-03,-5.838897535853421542e-03,-9.999770462248180891e-01,1.928377647950520100e+02
3.128416612696442112e+00,3.902694486829902942e+00,5.159834032539484028e+00,-3.868164998317066491e-03,-6.568745555824097651e-03,-9.999709440185592380e-01,1.942161308604514716e+02
3.018012152729459441e+00,4.102177893472511272e+00,5.178929329781715829e+00,-4.299131563234050851e-03,-7.298585182880997467e-03,-9.999641234175006277e-01,1.954526237271916784e+02
2.904815571000974650e+00,4.336589170894816547e+00,5.220115034230814466e+00,-4.730092251022989698e-03,-8.028414844100014922e-03,-9.999565844487389166e-01,1.968309897925911400e+02
2.851551826570088100e+00,4.464480819280588264e+00,5.252222952523253774e+00,-2.376633227636378454e-03,-1.065847142513173113e-01,-9.943007846232779778e-01,1.975490946105868204e+02
2.760904269971694358e+00,4.720051453460240687e+00,5.334183480794962406e+00,-0.000000000000000000e+00,-2.041017182454783752e-01,-9.789496864544384724e-01,1.989274606759862820e+02
2.682128398006037528e+00,4.984539094299442752e+00,5.435675282096990024e+00,9.628622294736105579e-09,-2.801286303623076734e-01,-9.599624734599458975e-01,2.003058267413857436e+02
2.642943846538834407e+00,5.142680235199185823e+00,5.505155436361384602e+00,1.931806030235874095e-08,-3.553586696613372231e-01,-9.347300229994349730e-01,2.011077315196974951e+02
2.586339538111987579e+00,5.420448519970196166e+00,5.640041216939027713e+00,2.888586743755799225e-08,-4.283512885124805547e-01,-9.036122916548317008e-01,2.024860975850969567e+02
2.539584253099396172e+00,5.702757401560814010e+00,5.786941752455519783e+00,3.815637574466796152e-08,-4.977906334313696446e-01,-8.672972300589887329e-01,2.038644636504964183e+02
2.501464610398938859e+00,5.988019287406170399e+00,5.942007672121278006e+00,3.652168783989205308e-08,-4.787647132051733867e-01,-8.779432495267371905e-01,2.052428297158958799e+02
2.470787705408869606e+00,6.274664736442055357e+00,6.101418322485320900e+00,3.485370359227837529e-08,-4.593253708228920984e-01,-8.882680922550418856e-01,2.066211957812953415e+02
2.446457846457480212e+00,6.561204250392149717e+00,6.260222448116395277e+00,3.315416834997899310e-08,-4.394922460828131205e-01,-8.982463835903170546e-01,2.079995618466948031e+02
2.443521198939265116e+00,6.605039367278644491e+00,6.283759740074050804e+00,3.142501517387418529e-08,-4.192872641562557234e-01,-9.078536171191704529e-01,2.082111857351961248e+02
2.429123222728874598e+00,6.888713440228253049e+00,6.426679808188465515e+00,2.966835699917097909e-08,-3.987345530300097085e-01,-9.170663859394027062e-01,2.095895518005955864e+02
2.419214570249003327e+00,7.169310201835951801e+00,6.551939842135697134e+00,2.788647619649433771e-08,-3.778603296435029679e-01,-9.258626092902242366e-01,2.109679178659950480e+02
2.412965008813369838e+00,7.445420128752162192e+00,6.653585828509594791e+00,2.608181159787872283e-08,-3.566927552878333407e-01,-9.342217500814103959e-01,2.123462839313945096e+02
2.409503128412745721e+00,7.715384085915074408e+00,6.730690726454735540e+00,2.425694312041778559e-08,-3.352617616392564170e-01,-9.421250188709254791e-01,2.137246499967939712e+02
2.407933960808344764e+00,7.977407388375368669e+00,6.784796196118604961e+00,2.241457418693336449e-08,-3.135988496034710638e-01,-9.495555600002451024e-01,2.151030160621934328e+02
2.407357515369476619e+00,8.229673221929921567e+00,6.817363009432386711e+00,2.055751220603262278e-08,-2.917368639150852982e-01,-9.564986159075143934e-01,2.164813821275928944e+02
2.406865408589334621e+00,8.470336297525603797e+00,6.829776187590820946e+00,1.868864743051228030e-08,-2.697097471349532150e-01,-9.629416660942651252e-01,2.178597481929923561e+02
2.405537422178254836e+00,8.697516427498692693e+00,6.823349872121584170e+00,1.681093056062888473e-08,-2.475522772847089381e-01,-9.688745378072199932e-01,2.192381142583918177e+02
2.402437976893585958e+00,8.909292001562546304e+00,6.799331946674194604e+00,1.492734949505279405e-08,-2.252997938250907162e-01,-9.742894861910249560e-01,2.206164803237912793e+02
2.396612508820592513e+00,9.103693340188167227e+00,6.758908425782879092e+00,1.304090565566472935e-08,-2.029879170009157296e-01,-9.791812424426997730e-01,2.219948463891907409e+02
2.387083734324883633e+00,9.278695902678279595e+00,6.703207626038639511e+00,1.115459032168978050e-08,-1.806522657267715659e-01,-9.835470293218234739e-01,2.233732124545902025e+02
2.372847789351207215e+00,9.432213326816391685e+00,6.633304134338200875e+00,9.271361403668643785e-09,-1.583281791680475614e-01,-9.873865442071461107e-01,2.247515785199896641e+02
2.352870228144022580e+00,9.562090276472892114e+00,6.550222587165381860e+00,7.394121068847732559e-09,-1.360504469850325193e-01,-9.907019107053205431e-01,2.261299445853891257e+02
2.326081865809225935e+00,9.666095072971003788e+00,6.454941274200320933e+00,5.525694597835635182e-09,-1.138530528650891216e-01,-9.934976005775248975e-01,2.275083106507885873e+02
2.291374448420264720e+00,9.741912085360988627e+00,6.348395578930624339e+00,3.668810809541008190e-09,-9.176893548849002213e-02,-9.957803284255566378e-01,2.288866767161880489e+02
2.247596133593450229e+00,9.787133854011603518e+00,6.231481268363104675e+00,1.826084339675510346e-09,-6.982977048250860186e-02,-9.975589221466369949e-01,2.302650427815875105e+02
2.193546763613190898e+00,9.799252921101318847e+00,6.105057643405859658e+00,-0.000000000000000000e+00,-4.806577624515451230e-02,-9.988441726084960059e-01,2.316434088469869721e+02
2.128513145973387921e+00,9.776962426100540782e+00,5.969837024465507014e+00,5.290989088681016111e-02,-1.298316512079052687e-01,-9.901233689752881872e-01,2.330217749123864337e+02
2.094491212111893930e+00,9.752106406893988222e+00,5.905397457411859286e+00,1.082062514972104011e-01,-2.147869427149509680e-01,-9.706482248353863751e-01,2.336406983015678520e+02
2.008605589067289365e+00,9.665444343937203087e+00,5.753887560537410018e+00,1.641925054125106531e-01,-3.002579096958361560e-01,-9.396201407118994764e-01,2.350190643669673136e+02
1.913246943467381778e+00,9.548975080220548861e+00,5.594583428162202665e+00,2.189233416908581698e-01,-3.832369010165413981e-01,-8.973305122206339801e-01,2.363974304323667752e+02
1.809201338380190816e+00,9.404859740939794932e+00,5.427741119815849835e+00,2.705156328756735395e-01,-4.608688530878577994e-01,-8.452344009938050906e-01,2.377757964977662368e+02
1.697237634004767903e+00,9.235157209876604156e+00,5.253590183491724908e+00,3.174593530512596629e-01,-5.309226816567880203e-01,-7.857102934686808204e-01,2.391541625631656984e+02
1.578109585398131953e+00,9.041831473681833486e+00,5.072334462960761847e+00,3.588157289843061926e-01,-5.920765985521623254e-01,-7.215930806766113204e-01,2.405325286285651600e+02
1.452557933032945892e+00,8.826758618945669710e+00,4.884152814684613375e+00,3.664494630526710095e-01,-6.009575936318605205e-01,-7.103272215568067205e-01,2.419108946939646216e+02
1.321500880738363470e+00,8.591898669252993059e+00,4.689378529945006591e+00,3.747410577622501959e-01,-6.105506110017377974e-01,-6.977084570453725432e-01,2.432892607593640832e+02
1.186226680270321188e+00,8.339466075804763179e+00,4.488679300115109960e+00,3.837673600662651063e-01,-6.209277409515135959e-01,-6.834993444507608817e-01,2.446676268247635448e+02
1.048211505476036143e+00,8.071769932338016318e+00,4.282880771813192489e+00,3.936141799079317938e-01,-6.321658321821885806e-01,-6.674085989832669874e-01,2.460459928901630065e+02
9.392774385756637034e-01,7.852080953185243573e+00,4.118512626473187943e+00,4.043761213478123118e-01,-6.443442397106053932e-01,-6.490766158439704725e-01,2.471243556683662916e+02
8.001802283465069277e-01,7.560199173666437567e+00,3.904888896954674227e+00,4.161552844759494607e-01,-6.575404415949163139e-01,-6.280568022638589598e-01,2.485027217337657532e+02
6.625683912607054360e-01,7.259324436949135873e+00,3.688499866358686763e+00,4.290579052870917565e-01,-6.718221004313728040e-01,-6.037916687754405487e-01,2.498810877991652148e+02
5.279649897831990568e-01,6.951558503679028611e+00,3.470115998525429291e+00,4.431873545322004282e-01,-6.872332660607225474e-01,-5.755826672184124471e-01,2.512594538645646765e+02
3.979173847378226214e-01,6.638968985550194546e+00,3.250500741501268553e+00,4.586308668551031253e-01,-7.037710478768243183e-01,-5.425532601856644099e-01,2.526378199299641381e+02
2.740025482559061420e-01,6.323596442254112659e+00,3.030413212559982306e+00,4.754357295719737198e-01,-7.213470570001458970e-01,-5.036062851112891314e-01,2.540161859953635997e+02
1.578325279382468693e-01,6.007461348544889113e+00,2.810610867993463380e+00,4.935682709277092739e-01,-7.397251923410296248e-01,-4.573805874208676236e-01,2.553945520607630613e+02
5.106008092689617861e-02,5.692570954885303181e+00,2.591852167060856527e+00,5.128460140122870214e-01,-7.584244669315259868e-01,-4.022204543174550673e-01,2.567729181261625513e+02
-4.461550265637893170e-02,5.380926064643661633e+00,2.374899239464183687e+00,5.328311021973860528e-01,-7.765748318651096715e-01,-3.361882613132044506e-01,2.581512841915620129e+02
-1.274423666310884884e-01,5.074527750386668146e+00,2.160520565732559017e+00,5.526758666629630889e-01,-7.927218138665936831e-01,-2.571799218998254699e-01,2.595296502569614745e+02
-1.956098248742366985e-01,4.775384031464613876e+00,1.949493679942507773e+00,5.709296475129906900e-01,-8.046062885212278415e-01,-1.632423292617046773e-01,2.609080163223609361e+02
-2.472418444995261866e-01,4.485516534810743750e+00,1.742607904279578568e+00,5.853675574815032645e-01,-8.090196999812566681e-01,-5.321604730131913180e-02,2.622863823877603977e+02
-2.803902529243524899e-01,4.206967160671429617e+00,1.540667125058679421e+00,5.929978695993293192e-01,-8.019564147483204675e-01,7.224566073250728027e-02,2.636647484531598593e+02
-2.918171214435718031e-01,3.941161256978266803e+00,1.345531963221211935e+00,5.904952392909788017e-01,-7.793673481205625198e-01,2.095278240669040670e-01,2.650431145185593209e+02
-2.780726819658297932e-01,3.688263091447405273e+00,1.162278106337458317e+00,5.752119057535791669e-01,-7.386173211056393795e-01,3.515333788448322672e-01,2.664214805839587825e+02
-2.389963124676177386e-01,3.447828448196892825e+00,9.965359019198917201e-01,5.464513065094921407e-01,-6.800792748843413893e-01,4.887567385590273483e-01,2.677998466493582441e+02
-1.766344343948533513e-01,3.219465501482774883e+00,8.496070114379289384e-01,5.061387660266681854e-01,-6.076719289552340308e-01,6.120117452180363626e-01,2.691782127147577057e+02
-9.295288668046275404e-02,3.002837829990527396e+00,7.201079026577716924e-01,4.582256119384190418e-01,-5.276469459974592047e-01,7.152747646486737887e-01,2.705565787801571673e+02
1.015642714531270023e-02,2.797662735948124091e+00,6.067163432624141928e-01,4.072121977389502878e-01,-4.464101898112011191e-01,7.968037201502898847e-01,2.719349448455566289e+02
1.308691443655443654e-01,2.603709794793843457e+00,5.081667506096022580e-01,3.568310137881287591e-01,-3.688394318531447724e-01,8.582709951461633402e-01,2.733133109109560905e+02
2.674222803751530875e-01,2.420799629156859645e+00,4.232457407234980207e-01,3.094984707677501667e-01,-2.977693328215066937e-01,9.030748147431966188e-01,2.746916769763555521e+02
4.181082773540675812e-01,2.248802901411163901e+00,3.507878608668177356e-01,2.664155383669109534e-01,-2.343244125481003803e-01,9.349410840265052203e-01,2.760700430417550137e+02
5.733540900725323519e-01,2.095495835312294552e+00,2.926584931124857625e-01,2.279315509864150435e-01,-1.785222066620746617e-01,9.571713690836300970e-01,2.773813323706905294e+02
7.474552331912410752e-01,1.945175739591304964e+00,2.418602373366921243e-01,1.939018117563366950e-01,-1.297973714893258523e-01,9.723963850982128010e-01,2.787596984360899910e+02
9.308965618955389321e-01,1.805699853942954070e+00,2.003389666147922243e-01,1.639433476967606385e-01,-8.734927583562929199e-02,9.825948721405838304e-01,2.801380645014894526e+02
1.122136895126072842e+00,1.677133028336385667e+00,1.670818649131743105e-01,1.375892541457928164e-01,-5.033718424596759361e-02,9.892094646867223284e-01,2.815164305668889142e+02
1.319663416214147400e+00,1.559588339037031979e+00,1.411051809832939430e-01,1.143709254958935051e-01,-1.797488474237668790e-02,9.932754879285559113e-01,2.828947966322883758e+02
1.521986598371518173e+00,1.453227319671172468e+00,1.214507685430186446e-01,9.385641308931340354e-02,1.043215644382656376e-02,9.955310863222401885e-01,2.842731626976878374e+02
1.727635215304680560e+00,1.358260395144647470e+00,1.071827165099522999e-01,7.566459433368313836e-02,3.547921522170285197e-02,9.965019289753388465e-01,2.856515287630872990e+02
1.935151420503564035e+00,1.274947519445794208e+00,9.738405743505990086e-02,5.946707453358093809e-02,5.766834520844313361e-02,9.965631083917050326e-01,2.870298948284867606e+02
2.143085879008449712e+00,1.203599019184831809e+00,9.115354256018244616e-02,4.498447615999003057e-02,7.741961361895795257e-02,9.959832329571128851e-01,2.884082608938862222e+02
2.349992935660581317e+00,1.144576645548976535e+00,8.760247215758452943e-02,3.198061228910603626e-02,9.508341292278985057e-02,9.949554688650985579e-01,2.897866269592856838e+02
2.554425803992063759e+00,1.098294838188302869e+00,8.585157000396409499e-02,2.025627275599231961e-02,1.109520087768780389e-01,9.936193109850524063e-01,2.911649930246851454e+02
2.754931760009594832e+00,1.065222205394579014e+00,8.502789099655710947e-02,9.643406632004988474e-03,1.252696395490124348e-01,9.920758651009459195e-01,2.925433590900846070e+02
2.950047325175112256e+00,1.045883225797206162e+00,8.426175103565780589e-02,-0.000000000000000000e+00,1.382410334876689184e-01,9.903986150334931349e-01,2.939217251554840686e+02
3.138293422884992800e+00,1.040860177680533072e+00,8.268366837607420139e-02,1.437115291141532917e-06,2.201737398284426828e-01,9.754606728555960116e-01,2.953000912208835302e+02
3.318170492697728680e+00,1.050795302928763331e+00,7.942130569027232301e-02,2.906672405684439265e-06,3.029537862642586177e-01,9.530052483484553472e-01,2.966784572862829918e+02
3.488153546458381715e+00,1.076393213531703585e+00,7.359640208868598044e-02,4.376599419075901205e-06,3.847070496351534530e-01,9.230387239665848176e-01,2.980568233516824534e+02
3.646687150315391701e+00,1.118423549540126016e+00,6.432168430722880192e-02,5.813344870365012145e-06,4.635436231872901436e-01,8.860740992538967964e-01,2.994351894170819151e+02
3.792180316421798203e+00,1.177723898347588616e+00,5.069774619850180020e-02,7.185576598314427411e-06,5.377686786838405952e-01,8.430924315726026075e-01,3.008135554824813767e+02
3.910139733823764008e+00,1.247551979035121272e+00,3.369361735359218540e-02,8.467482058952190987e-06,6.060582983568790771e-01,7.954202278802481318e-01,3.020562269630938204e+02
4.025121039725481964e+00,1.343501852549923159e+00,9.063876437943579195e-03,-1.149938291370036260e-03,5.330038276278729059e-01,8.461120477667024575e-01,3.034345930284932820e+02
4.123782304309902891e+00,1.457232742297706940e+00,-2.120902730882478701e-02,-2.350260134520232476e-03,4.521921282127889796e-01,8.919174600038327627e-01,3.048129590938927436e+02
4.205960097515660578e+00,1.587545065360195240e+00,-5.668881802505982420e-02,-3.562423361933717697e-03,3.650958211981229495e-01,9.309631305714842764e-01,3.061913251592922052e+02
4.271424651369643222e+00,1.733298820118412964e+00,-9.695753229536516193e-02,-4.752873340785992648e-03,2.738218659167676039e-01,9.617686810979374501e-01,3.075696912246916668e+02
4.319879417383119424e+00,1.893410006686781388e+00,-1.416140491876442253e-01,-5.888917626029169933e-03,1.808768513204772888e-01,9.834881215884531125e-01,3.089480572900911284e+02
4.350960363436294109e+00,2.066847247972940060e+00,-1.902726795246630909e-01,-6.943069469156357490e-03,8.883397129923947810e-02,9.960222484109240160e-01,3.103264233554905900e+02
4.363469996785221738e+00,2.242066183369332499e+00,-2.395904963492742901e-01,-7.896110403326194946e-03,0.000000000000000000e+00,9.999688252343162942e-01,3.116264188655559337e+02
4.359124282079974044e+00,2.439267684963428717e+00,-2.950610095129228005e-01,-4.729192055670328187e-02,-5.529970744095460614e-05,9.988811096381795540e-01,3.130047849309553953e+02
4.338711868766041313e+00,2.647001026714173921e+00,-3.530692901714232446e-01,-8.705717528321214871e-02,-1.111355101660277758e-04,9.962033105147796164e-01,3.143831509963548569e+02
4.304383286075804449e+00,2.864393771522815602e+00,-4.128798442921490786e-01,-1.270052721746356139e-01,-1.672459025019421865e-04,9.919020278579204764e-01,3.157615170617543185e+02
4.258233870401151755e+00,3.090593742668995336e+00,-4.737635163795067550e-01,-1.669423603451222760e-01,-2.233589540126794545e-04,9.859666315008723814e-01,3.171398831271537802e+02
4.202311352348339746e+00,3.324766358613218120e+00,-5.349949250601845341e-01,-2.066718958724245436e-01,-2.791986914156056833e-04,9.784102664550226036e-01,3.185182491925532418e+02
4.138623256923049887e+00,3.566091981343680217e+00,-5.958499119422054902e-01,-2.459994182380958183e-01,-3.344918010623627305e-04,9.692699182073863939e-01,3.198966152579527034e+02
4.069144143267560132e+00,3.813763270062696886e+00,-6.556029947753935216e-01,-2.847372810762301421e-01,-3.889742779913850043e-04,9.586055129532309316e-01,3.212749813233521650e+02
3.995822709747386181e+00,4.066982531858575278e+00,-7.135248159555119818e-01,-3.227090711376174870e-01,-4.423976475589850308e-04,9.464981033735977434e-01,3.226533473887516266e+02
3.920588789649440908e+00,4.324959060833594826e+00,-7.688795773985820370e-01,-3.597534765865136319e-01,-4.945344230605766209e-04,9.330472611393385574e-01,3.240317134541510882e+02
3.862427402214555716e+00,4.526151036280465334e+00,-8.089671460622124277e-01,-3.410813019613544994e-01,-6.986794512634697009e-03,9.400078351560615664e-01,3.250907428470327432e+02
3.787082834086006766e+00,4.790936838995787816e+00,-8.575828746728390017e-01,-3.221210164631383988e-01,-1.352346208317354963e-02,9.466019050931808732e-01,3.264691089124322048e+02
3.712674349683299457e+00,5.057644255201348749e+00,-9.023532886651407514e-01,-3.028935809052533124e-01,-2.009616920881081292e-02,9.528124803073916294e-01,3.278474749778316664e+02
3.639694211454855832e+00,5.325212429931830194e+00,-9.429762652323304684e-01,-2.834214588116035771e-01,-2.669623598172749315e-02,9.586237988228283324e-01,3.292258410432311280e+02
3.568632854887488381e+00,5.592580360842229759e+00,-9.791350951763390098e-01,-2.637285014725849752e-01,-3.331472296439354913e-02,9.640214762881740285e-01,3.306042071086305896e+02
3.499980622454236912e+00,5.858683173367549735e+00,-1.010497369051933658e+00,-2.438398137603513816e-01,-3.994248812464213511e-02,9.689926433506756975e-01,3.319825731740300512e+02
3.434229472924148485e+00,6.122448371161842040e+00,-1.036713808093721045e+00,-2.237816022491176393e-01,-4.657024746714451269e-02,9.735260687550520986e-01,3.333609392394295128e+02
3.371874671919498745e+00,6.382792048771557702e+00,-1.057417035814981032e+00,-2.035810076405511759e-01,-5.318863846442694471e-02,9.776122657098561541e-01,3.347393053048289744e+02
3.313416469453913216e+00,6.638615053327861837e+00,-1.072220285957903085e+00,-1.832659239059463985e-01,-5.978828530276246445e-02,9.812435793804998863e-01,3.361176713702284360e+02
3.259361770052041418e+00,6.888799081825684567e+00,-1.080716042250292386e+00,-1.628648069088542705e-01,-6.635986489717395076e-02,9.844142537577208474e-01,3.374960374356278976e+02
3.210225800936563623e+00,7.132202700295563247e+00,-1.082474605184839511e+00,-1.424064755493140710e-01,-7.289417259839066354e-02,9.871204765999025410e-01,3.388744035010273592e+02
3.166533783671265034e+00,7.367657270865258567e+00,-1.077042580780537051e+00,-1.219199086620595396e-01,-7.938218651460016151e-02,9.893604016413818369e-01,3.402527695664268208e+02
3.128822614568912641e+00,7.593962772349251544e+00,-1.063941286011274023e+00,-1.014340409981064478e-01,-8.581512940249287624e-02,9.911341477784063603e-01,3.416311356318262824e+02
3.097642559109079041e+00,7.809883499595239087e+00,-1.042665065294106075e+00,-8.097756161831463906e-02,-9.218452714421729310e-02,9.924437754702022385e-01,3.430095016972257440e+02
3.073558965563744305e+00,8.014143626357329353e+00,-1.012679512116271718e+00,-6.057871792971206842e-02,-9.848226291687069145e-02,9.932932411049442134e-01,3.443878677626252056e+02
3.057154002996148812e+00,8.205422615952469911e+00,-9.734195895461474901e-01,-4.026512840580589309e-02,-1.047006262752336048e-01,9.936883305604619077e-01,3.457662338280246672e+02
3.049028428780669486e+00,8.382350463387780337e+00,-9.242876430180424485e-01,-2.006360676007555230e-02,-1.108323565018107526e-01,9.936365736203718324e-01,3.471445998934241288e+02
3.049137342778917681e+00,8.422875209936906415e+00,-9.095023148138944302e-01,0.000000000000000000e+00,-1.168706797253571267e-01,9.931471412739065752e-01,3.474887772282869491e+02
3.058274985551137082e+00,8.569737505797460742e+00,-8.401996238429543240e-01,-2.575863745885538861e-02,-9.047495365799514133e-02,9.955655555295426229e-01,3.488671432936864107e+02
3.076097936362704122e+00,8.699537441705995633e+00,-7.611139730284243177e-01,-5.416415149824870684e-02,-6.118136464383505668e-02,9.966559513256281200e-01,3.502455093590858723e+02
3.102288072554684639e+00,8.811425477045700561e+00,-6.730600791326538657e-01,-8.548037459306954966e-02,-2.865889173237772675e-02,9.959275944987668883e-01,3.516238754244853340e+02
3.136551343722566720e+00,8.904491059699022770e+00,-5.768211179213295070e-01,-1.199540895164981913e-01,7.422072200836105603e-03,9.927516956684151461e-01,3.530022414898847956e+02
3.178616316538043662e+00,8.977759273516582539e+00,-4.731514785664122646e-01,-1.577840392558505223e-01,4.736046385105754930e-02,9.863372564290171507e-01,3.543806075552842572e+02
3.213075730252402895e+00,9.014325031424256451e+00,-3.964386743784631406e-01,-1.990749012266098128e-01,9.137880786929507282e-02,9.757146597105128549e-01,3.553384525484751180e+02
3.269967263099621935e+00,9.045329219506207608e+00,-2.799628388340312801e-01,-2.437740482091345917e-01,1.395573843225007271e-01,9.597384799521130327e-01,3.567168186138745796e+02
3.333577633691742204e+00,9.054036284018875946e+00,-1.579477457788228678e-01,-2.915929647684784021e-01,1.917482368915791879e-01,9.371265424405070821e-01,3.580951846792740412e+02
3.402500420028733874e+00,9.040840223445560042e+00,-3.078075069313350107e-02,-3.419234062843409805e-01,2.474770443841986800e-01,9.065558431435841724e-01,3.594735507446735028e+02
3.474945953985859592e+00,9.006619967754156519e+00,1.012610349459026338e-01,-3.937708561283867481e-01,3.058542584679073695e-01,8.668319822439431999e-01,3.608519168100729644e+02
3.549142636318370680e+00,8.952192012584079706e+00,2.379176441151812649e-01,-4.457406912934553378e-01,3.655324456302520564e-01,8.171298962324163861e-01,3.622302828754724260e+02
3.623330228885104809e+00,8.878313195576264860e+00,3.789453399549658208e-01,-4.961157872239792543e-01,4.247545754306516486e-01,7.572665820685990923e-01,3.636086489408718876e+02
3.695753205215977832e+00,8.785683306253201152e+00,5.241157585476655667e-01,-5.430451511436396039e-01,4.815233622311356210e-01,6.879223905681542961e-01,3.649870150062713492e+02
3.764933238486497746e+00,8.675158441187569736e+00,6.732101298156520919e-01,-5.848178553334321128e-01,5.338772223886679713e-01,6.107071208834604636e-01,3.663653810716708108e+02
3.829944519498364119e+00,8.547962539594070819e+00,8.260135321711129519e-01,-6.201447348266576620e-01,5.802004414438979296e-01,5.280037458343269652e-01,3.677437471370702724e+02
3.890133751934914841e+00,8.405477219214461115e+00,9.823191125975090365e-01,-6.483500977604474969e-01,6.194634452997854757e-01,4.426140425600365025e-01,3.691221132024697340e+02
3.944839300498761414e+00,8.249034578198237710e+00,1.141932335103180707e+00,-6.694104572385684016e-01,6.513142283924620024e-01,3.573225652448814849e-01,3.705004792678691956e+02
3.993388527347967898e+00,8.079921941782169270e+00,1.304670296544651054e+00,-6.838468147942552422e-01,6.760107164568953664e-01,2.745233052605669521e-01,3.718788453332686572e+02
4.035095119782517337e+00,7.899386468756280699e+00,1.470361083361489296e+00,-6.925332938607049460e-01,6.942479992666920063e-01,1.960034499916715744e-01,3.732572113986681188e+02
4.069256398789360851e+00,7.708639633988665807e+00,1.638843166961267084e+00,-6.964972833486475778e-01,7.069568240831689554e-01,1.228966361223653020e-01,3.746355774640675804e+02
4.095150598110262052e+00,7.508861602921906631e+00,1.809964835628433910e+00,-6.967621571756672516e-01,7.151317949334674573e-01,5.575851686646614291e-02,3.760139435294670420e+02
4.112034103472601565e+00,7.301205513646834788e+00,1.983583660958628370e+00,-6.942497756702908918e-01,7.197146412580422981e-01,-5.299447193632526344e-03,3.773923095948665036e+02
4.119138641596078010e+00,7.086801681902636041e+00,2.159565996941587684e+00,-6.897360176725321201e-01,7.215315364928600594e-01,-6.046873383401414614e-02,3.787706756602659652e+02
4.116596457386262564e+00,6.919327751961311890e+00,2.295184456513451376e+00,-6.838429996655724930e-01,7.212708490393787697e-01,-1.101231770991257519e-01,3.798196954906721317e+02
4.102083612155762005e+00,6.694662803493718783e+00,2.475435003247272281e+00,-6.770518965895289121e-01,7.194857854551754972e-01,-1.547285812397664606e-01,3.811980615560715933e+02
4.075506244885905183e+00,6.466429336570922892e+00,2.657609810396061700e+00,-6.697245767134755168e-01,7.166095628603992296e-01,-1.947812253862871157e-01,3.825764276214710549e+02
4.035969195170297397e+00,6.235705431755779848e+00,2.841605324288350332e+00,-6.621269057880017073e-01,7.129750327387287534e-01,-2.307695025838888137e-01,3.839547936868705165e+02
3.983071578790533973e+00,6.003348143888432631e+00,3.027003538934596172e+00,-6.548298045269883572e-01,6.823080417163012168e-01,-3.250440944124542431e-01,3.853331597522699781e+02
3.917509774514117193e+00,5.769767522351835431e+00,3.212764754184623150e+00,-6.389396950773417183e-01,6.398772922011817244e-01,-4.269814012105880296e-01,3.867115258176694397e+02
3.840616439671321380e+00,5.535132497057097645e+00,3.397559858730102356e+00,-6.122617119828518417e-01,5.839797479934121238e-01,-5.330133675372301649e-01,3.880898918830689013e+02
3.753757821966155372e+00,5.299593164776019272e+00,3.580071427410757234e+00,-5.734205523896882539e-01,5.142986628984549391e-01,-6.377191822722333425e-01,3.894682579484683629e+02
3.658265615014701932e+00,5.063287730446904611e+00,3.758974003952940457e+00,-5.226395081251761221e-01,4.326150701484628436e-01,-7.346374246028544164e-01,3.908466240138678245e+02
3.555441626966758140e+00,4.826343200976928038e+00,3.932929439380738135e+00,-4.621143370528001948e-01,3.428657726808539974e-01,-8.178590351730620212e-01,3.922249900792672861e+02
3.446562346968947477e+00,4.588876009884540252e+00,4.100582185787993161e+00,-3.955985829525136555e-01,2.502770312797634733e-01,-8.836646246058237342e-01,3.936033561446667477e+02
3.332883425287120449e+00,4.350992575586913880e+00,4.260554528921035811e+00,-3.273498949694014226e-01,1.599693199000601085e-01,-9.312635840374271501e-01,3.949817222100662093e+02
3.255069796547255034e+00,4.192818792695218733e+00,4.360816599241490010e+00,-2.610501839463382212e-01,7.581200284682330925e-02,-9.623436712972845974e-01,3.958969194449986730e+02
3.135428167824545476e+00,3.954423139589566372e+00,4.501596671354259449e+00,-1.992136805227447960e-01,0.000000000000000000e+00,-9.799560752873477387e-01,3.972752855103981346e+02
3.014369181030575717e+00,3.716201603645679530e+00,4.630877395391707729e+00,2.883112816167542336e-01,-5.998126426602973238e-01,-7.463922551831410068e-01,3.986536515757975963e+02
2.893157259986670837e+00,3.478720987523822306e+00,4.747537076861371830e+00,2.552482812487095742e-01,-5.308645911956734187e-01,-8.081033973039775109e-01,4.000320176411970579e+02
2.773076100528930610e+00,3.242706788422803132e+00,4.850539960566653264e+00,2.176535941479652014e-01,-4.524812410659935225e-01,-8.648049719086096099e-01,4.014103837065965195e+02
2.655418145995176893e+00,3.008881340737620480e+00,4.938802260812447997e+00,1.762807733688252221e-01,-3.662355832173138648e-01,-9.136720344445061759e-01,4.027887497719959811e+02
2.541489178594556808e+00,2.777966284936632668e+00,5.011188349767735417e+00,1.323521674492808831e-01,-2.746766897309675381e-01,-9.523841766272239662e-01,4.041671158373954427e+02
2.432612974244597215e+00,2.550685004183071314e+00,5.066506763500713717e+00,8.739730309710785905e-02,-1.809925009028107157e-01,-9.795935004012114034e-01,4.055454819027949043e+02
2.330136037273695671e+00,2.327765036806457744e+00,5.103506011640464024e+00,4.299745237695774130e-02,-8.847743535216515132e-02,-9.951497186466942146e-01,4.069238479681943659e+02
2.235432431723980429e+00,2.109940472538303080e+00,5.120870175927861645e+00,5.300273656876602468e-04,0.000000000000000000e+00,-9.999998595354860909e-01,4.083022140335938275e+02
2.222693290688751322e+00,2.078237241065342467e+00,5.120609475488723916e+00,5.982207924753716764e-04,8.724705512603916913e-02,-9.961865254578168294e-01,4.085073744676424212e+02
2.146575815951871746e+00,1.870725546066987155e+00,5.099539497843927016e+00,6.633287333646924622e-04,1.759069719812340893e-01,-9.844065710890926857e-01,4.098857405330418828e+02
2.079626269130196548e+00,1.670667594843465942e+00,5.057948425426735284e+00,7.235929389150441357e-04,2.638604579196147104e-01,-9.645605917513476735e-01,4.112641065984413444e+02
2.021837549379188026e+00,1.479438250745000349e+00,4.996188918837621173e+00,7.775613065119091338e-04,3.489882203002052097e-01,-9.371267883750362682e-01,4.126424726638408060e+02
1.973244246458010887e+00,1.298443333142817124e+00,4.914542706971901431e+00,8.242578295552722457e-04,4.294190013449196153e-01,-9.031050004750070803e-01,4.140208387292402676e+02
1.938777623237464942e+00,1.150119852558356914e+00,4.826294965417465832e+00,2.524545182853736493e-03,4.234274301280624986e-01,-9.059265081046942170e-01,4.152260389211330107e+02
1.908233457360552832e+00,9.924435762244581127e-01,4.707424791508747930e+00,4.455973951566657293e-03,4.165968269191580031e-01,-9.090804299384253051e-01,4.166044049865324723e+02
1.886094461183843718e+00,8.470858840736897877e-01,4.572354773171024789e+00,6.668680869329952389e-03,4.087393995976320582e-01,-9.126267758026992416e-01,4.179827710519319339e+02
1.871936151708843088e+00,7.144236370731623653e-01,4.422831660194328052e+00,9.228273424305474815e-03,3.996074194467702512e-01,-9.166399234665153495e-01,4.193611371173313955e+02
1.865365086101886893e+00,5.948809805437067499e-01,4.260551371315220770e+00,1.222221514713492385e-02,3.888675473959493645e-01,-9.212125965482430567e-01,4.207395031827308571e+02
1.866017771930630120e+00,4.889306389966249777e-01,4.087164958704866180e+00,1.576960330894545612e-02,3.760609347316906659e-01,-9.264607347212322486e-01,4.221178692481303187e+02
1.873559693087096356e+00,3.970953884552756996e-01,3.904284414663242497e+00,2.003659753178950453e-02,3.605391483496576677e-01,-9.325288506350098983e-01,4.234962353135297803e+02
1.887684449096179495e+00,3.199497107001399998e-01,3.713488340941737409e+00,2.526160057445005214e-02,3.413573409256165925e-01,-9.395940705073703159e-01,4.248746013789292419e+02
1.908113005943651075e+00,2.581216345280611391e-01,3.516327500631611702e+00,3.179793336242697083e-02,3.170883202161586811e-01,-9.478628005235639753e-01,4.262529674443287036e+02
1.934593056990298487e+00,2.122947697859424998e-01,3.314330272143436229e+00,4.018919843678896153e-02,2.854826921341776513e-01,-9.575408402887214399e-01,4.276313335097281652e+02
1.966898492970245993e+00,1.832105406268441095e-01,3.109008024460946817e+00,5.130811523851085132e-02,2.428126021961686809e-01,-9.687153955240913605e-01,4.290096995751276268e+02
2.004828980504091973e+00,1.716706251395681837e-01,2.901860432574120630e+00,6.662129173213827971e-02,1.825293939189216175e-01,-9.809406831422236017e-01,4.303880656405270884e+02
2.048209648992540988e+00,1.785396092292214909e-01,2.694380751784888783e+00,8.869153798984262538e-02,9.238783618622112281e-02,-9.917652438020927441e-01,4.317664317059265500e+02
2.096890886193165660e+00,2.047478633757985611e-01,2.488061069434929884e+00,1.219527613536363214e-01,-5.155509256592347156e-02,-9.911960433883612032e-01,4.331447977713260116e+02
2.150748243209122279e+00,2.512946516419092835e-01,2.284397552510836871e+00,1.720860373504770613e-01,-2.923055923272683265e-01,-9.407145350440883069e-01,4.345231638367254732e+02
2.209522732260868594e+00,3.189350223780708649e-01,2.084778573200933405e+00,2.310445228626727410e-01,-6.515704188591002755e-01,-7.225471733547482733e-01,4.359015299021249348e+02
2.272657919543459748e+00,4.078672239766986118e-01,1.890372455345619374e+00,2.450200234846641456e-01,-9.344270536016630047e-01,-2.584787604212182566e-01,4.372798959675243964e+02
2.339454043726664878e+00,5.180518018878216280e-01,1.702248719759589024e+00,2.053241672032725673e-01,-9.650273128014772439e-01,1.629854960094369032e-01,4.386582620329238580e+02
2.409198409260957519e+00,6.491780104101440019e-01,1.521282519202733940e+00,1.639125463721485820e-01,-9.007982051414137326e-01,4.021135048164957149e-01,4.400366280983233196e+02
2.481134342187631070e+00,8.003123699439722571e-01,1.347941253400030348e+00,1.345706590172405237e-01,-8.361803926514810303e-01,5.316889021569667362e-01,4.414149941637227812e+02
2.504704966605961758e+00,8.548410994254376227e-01,1.294683529839297798e+00,1.144657691231479452e-01,-7.858165120323287178e-01,6.077746269106590882e-01,4.418583200280270376e+02
2.578804552885089585e+00,1.041963809527313822e+00,1.137117556858536771e+00,1.002488506439640353e-01,-7.477209293951375679e-01,6.564019954944041446e-01,4.432366860934264992e+02
2.653258945217789044e+00,1.246312570187574131e+00,9.880128812049605580e-01,8.979561983428889504e-02,-7.185239362767988913e-01,6.896811579678471249e-01,4.446150521588259608e+02
2.727278193779135496e+00,1.466877718207218351e+00,8.477325090831652199e-01,8.183614399541280782e-02,-6.956574704150596533e-01,7.136970851780765068e-01,4.459934182242254224e+02
2.800064421241263979e+00,1.702711744151915729e+00,7.166704814434741166e-01,7.559474810617498874e-02,-6.773578002618789728e-01,7.317594170785590713e-01,4.473717842896248840e+02
2.870896820679128325e+00,1.952687252475627355e+00,5.948098147746209152e-01,7.057968636982388244e-02,-6.624250821462551730e-01,7.457958959497325013e-01,4.487501503550243456e+02
2.939214829247775551e+00,2.215253556304250360e+00,4.812789963369897839e-01,6.646722303267181553e-02,-6.500309104969527185e-01,7.569953260495257963e-01,4.501285164204238072e+02
3.004525907178543509e+00,2.488668972332072737e+00,3.747923641214621071e-01,6.303677114719707930e-02,-6.395910196320061525e-01,7.661264210882082759e-01,4.515068824858232688e+02
3.066315590579018924e+00,2.771233221414807435e+00,2.740890302602728146e-01,6.013339379181060346e-02,-6.306841173594124328e-01,7.737063519589703064e-01,4.528852485512227304e+02
3.124045909145291677e+00,3.061281596010172468e+00,1.779284465298364704e-01,5.764533687978154464e-02,-6.229999767314441383e-01,7.800948943100682875e-01,4.542636146166221920e+02
3.128525733798811270e+00,3.086292075402123469e+00,1.700263097937232681e-01,5.549009980960338539e-02,-6.163057054641126742e-01,7.855495695597463079e-01,4.543805759754847600e+02
3.176058159508928558e+00,3.384819864269847045e+00,7.929095851292909669e-02,5.360552423864636123e-02,-6.104233835303458644e-01,7.902592869498367145e-01,4.557589420408842216e+02
3.218299718087747507e+00,3.687395403239213110e+00,-9.409234163014101177e-03,5.194392941761561550e-02,-6.052149264965294151e-01,7.943656091136236386e-01,4.571373081062836832e+02
3.254847133655503821e+00,3.992582439971821717e+00,-9.687916292024449649e-02,3.632900578392835034e-02,-4.232828733140649446e-01,9.052689172272184726e-01,4.585156741716831448e+02
3.284292483022464459e+00,4.285119780438892967e+00,-1.791594491482322027e-01,1.816426000148283967e-02,-2.116420468131785249e-01,9.771784400401632986e-01,4.598305280210327055e+02
3.309724185292560072e+00,4.592286672085299060e+00,-2.638171315403264328e-01,-4.636159474099297807e-07,-1.156627263298117030e-06,9.999999999992237321e-01,4.612088940864321671e+02
3.330031939971219934e+00,4.899125307845626054e+00,-3.463846696833974281e-01,-9.819414632828810455e-03,-1.060805675395931379e-06,9.999517883853916711e-01,4.625872601518316287e+02
3.345617757538524639e+00,5.205119367977080636e+00,-4.261522257578170270e-01,-1.964692082146604971e-02,-9.647889213370070951e-07,9.998069806224120226e-01,4.639656262172310903e+02
3.356930160056899481e+00,5.509902844356451723e+00,-5.022958272383810652e-01,-2.948014201922436600e-02,-8.686044581594223018e-07,9.995653661595983452e-01,4.653439922826305519e+02
3.364400032449019751e+00,5.813102633142246844e+00,-5.739787562846382363e-01,-3.931622647393748921e-02,-7.722799528805089751e-07,9.992268182626272699e-01,4.667223583480300135e+02
3.368442107320246848e+00,6.114337331710180123e+00,-6.403486070323478607e-01,-4.915231495799569222e-02,-6.758432429137753351e-07,9.987912944823924555e-01,4.681007244134294751e+02
3.369456384294094775e+00,6.413215997040198069e+00,-7.005342877107417765e-01,-5.898554491251971343e-02,-5.793222959578598919e-07,9.982588369210849688e-01,4.694790904788289367e+02
3.367829488652621883e+00,6.709336861596816526e+00,-7.536429570429254987e-01,-6.881305460764722270e-02,-4.827451694919675389e-07,9.976295722939111377e-01,4.708574565442283983e+02
3.363935973831563064e+00,7.002286002564469314e+00,-7.987568841544039344e-01,-7.863198730484328991e-02,-3.861399700144637087e-07,9.969037117858182695e-01,4.722358226096278599e+02
3.358139572092947667e+00,7.291635960105240066e+00,-8.349302209448004053e-01,-8.843949540711860957e-02,-2.895348121627123404e-07,9.960815507035808425e-01,4.736141886750273216e+02
3.350794397483780163e+00,7.576944300100368679e+00,-8.611856755721059020e-01,-9.823274458309554091e-02,-1.929577778528073940e-07,9.951634679245592308e-01,4.749925547404267832e+02
3.342246104989122557e+00,7.857752116617245264e+00,-8.765110753508340569e-01,-1.080089178510058728e-01,-9.643687557756225467e-08,9.941499251444146923e-01,4.763709208058262448e+02
3.334257386765655529e+00,8.089714959485281298e+00,-8.793685561325144118e-01,-1.177652196089313680e-01,0.000000000000000000e+00,9.930414659270077049e-01,4.775300981385105388e+02
3.324178285492735530e+00,8.360043217437841179e+00,-8.702466790367080485e-01,-1.010302391666944716e-01,2.883507761685669395e-03,9.948791766626280397e-01,4.789084642039100004e+02
3.314099648220961924e+00,8.624361506496070362e+00,-8.487447661608195082e-01,-8.424120901611883983e-02,5.770395447271377265e-03,9.964286834690603278e-01,4.802868302693094620e+02
3.304602766063804875e+00,8.882158697393597535e+00,-8.153403345666804247e-01,-6.741273071311811027e-02,8.658131489438485734e-03,9.976876066669927434e-01,4.816651963347089236e+02
3.296267580625890758e+00,9.132896979987505048e+00,-7.704690405735689085e-01,-5.055954839162445091e-02,1.154417540071562241e-02,9.986543266219560788e-01,4.830435624001083852e+02
3.289674570181862823e+00,9.376009974661210222e+00,-7.145262119465014550e-01,-3.369648431939186589e-02,1.442598892340100393e-02,9.993279930974089398e-01,4.844219284655078468e+02
3.285406625117374801e+00,9.610900731132179686e+00,-6.478682382506093518e-01,-1.683837378752599603e-02,1.730104717948710222e-02,9.997085289896674443e-01,4.858002945309073084e+02
3.284050918557790411e+00,9.836939607677599895e+00,-5.708138242611423552e-01,-0.000000000000000000e+00,2.016684970649313888e-02,9.997966284064554454e-01,4.871786605963067700e+02
3.286200778046290072e+00,1.005346202333285532e+01,-4.836451108365023566e-01,0.000000000000000000e+00,1.216388999231743200e-02,9.999260171533964625e-01,4.885570266617062316e+02
3.292457564086562982e+00,1.025976607513241134e+01,-3.866086671968234079e-01,0.000000000000000000e+00,4.158098703246230175e-03,9.999913550702196341e-01,4.899353927271056932e+02
3.303432561336085982e+00,1.045511001195011502e+01,-2.799163580992709011e-01,0.000000000000000000e+00,-3.848985613645272263e-03,9.999925926274384480e-01,4.913137587925051548e+02
3.319748888224864025e+00,1.063870955595588619e+01,-1.637460889595767910e-01,0.000000000000000000e+00,-1.185582307347407029e-02,9.999297172597934047e-01,4.926921248579046164e+02
3.342043430780061275e+00,1.080973506213282498e+01,-3.824243153972418235e-02,0.000000000000000000e+00,-1.986087393382374860e-02,9.998027533901798769e-01,4.940704909233040780e+02
3.351012330244661275e+00,1.085933272560497720e+01,3.939203955400401649e-03,0.000000000000000000e+00,-2.786260007479053613e-02,9.996117623943168162e-01,4.945025854643800471e+02
