4.679971312168668796e+00,2.817336687128889849e+00,3.552383501265198723e-02,-9.783174585899394315e-02,1.316976010678486964e-01,9.864505519158853764e-01,9.174855898513183661e+01
4.676040867438010729e+00,2.534489731275700652e+00,1.025326978911402925e-01,-5.123163980180277244e-02,6.342141065830886326e-02,9.966709806918873094e-01,9.319122762378684399e+01
4.667559668726492639e+00,2.388552224919384237e+00,1.442036921925358706e-01,-7.896110403326194946e-03,0.000000000000000000e+00,9.999688252343162942e-01,9.396639040647043828e+01
4.639710173753933908e+00,2.129313534304137612e+00,2.328189402642948935e-01,-6.773995230828162677e-03,1.040085942457456836e-01,9.945533295463026002e-01,9.540905904512544566e+01
4.600169008162253270e+00,1.883454902414143373e+00,3.326685415280538072e-01,-5.518126543001202963e-03,2.118828339110715164e-01,9.772794968550545525e-01,9.685172768378045305e+01
4.549828522053023683e+00,1.651981113780264021e+00,4.438484503734708153e-01,-4.162480327204056904e-03,3.198301153191381863e-01,9.474657624909051945e-01,9.829439632243546043e+01
4.489545915695126510e+00,1.435946903790083162e+00,5.664984461995042908e-01,-2.754622821785888444e-03,4.237656677571806085e-01,9.057676693741174567e-01,9.973706496109046782e+01
4.420146938041890294e+00,1.236461282305862053e+00,7.008026740735204818e-01,-1.347823947234613826e-03,5.200429710750499313e-01,8.541390352899473903e-01,1.011797335997454752e+02
4.342429492450571082e+00,1.054692043392320144e+00,8.469903569951030553e-01,8.467482058952190987e-06,6.060582983568790771e-01,7.954202278802481318e-01,1.026224022384004826e+02
4.288446243574399297e+00,9.512507058822340378e-01,9.471286387165874787e-01,4.873637970034889653e-05,6.398794319662490793e-01,7.684753152647882946e-01,1.035365823089326227e+02
4.196506035016515312e+00,8.066476489882528078e-01,1.116281727844937732e+00,9.484627275390653022e-05,6.772256314704598879e-01,7.357753971720047970e-01,1.049792509475876301e+02
4.098509445955616393e+00,6.803757914130587059e-01,1.295404447367057399e+00,1.477398502591081592e-04,7.182287285975709201e-01,6.958070649181806733e-01,1.064219195862426375e+02
3.995270375851279532e+00,5.720546351193755985e-01,1.483299101562693512e+00,2.083756097505332777e-04,7.627606170000558183e-01,6.466809087434847170e-01,1.078645882248976449e+02
3.887579904039208056e+00,4.813679761632137510e-01,1.678801924066818829e+00,2.775704226590930412e-04,8.102190176047583403e-01,5.861271760174927570e-01,1.093072568635526522e+02
3.776209809113130422e+00,4.080628189428282537e-01,1.880778576482384556e+00,3.557031438839373906e-04,8.592168089681585519e-01,5.116115212364245046e-01,1.107499255022076596e+02
3.661916006377470723e+00,3.519485124446127822e-01,2.088119760819123094e+00,4.422335932170022056e-04,9.072037553685431410e-01,4.206912771554238706e-01,1.121925941408626670e+02
3.545441918281087901e+00,3.128961056349018888e-01,2.299736928787278423e+00,5.350658346424418989e-04,9.501635184011828494e-01,3.117515068191933358e-01,1.136352627795176744e+02
3.427521792463586348e+00,2.908379198975601376e-01,2.514558071350136981e+00,6.299842543046762664e-04,9.827108576702779930e-01,1.851458164171857768e-01,1.150779314181726818e+02
3.308883981830410992e+00,2.857673371630281567e-01,2.731523572249987986e+00,7.206742910832907500e-04,9.990138973102159481e-01,4.439272023225571129e-02,1.165206000568276892e+02
3.190254200918845928e+00,2.977388031124896250e-01,2.949582109470017866e+00,7.998806756437087245e-04,9.946356390322065311e-01,-1.034374485275948580e-01,1.179632686954826966e+02
3.072358772728886134e+00,3.268680455668537266e-01,3.167686588783325874e+00,8.615913224548356038e-04,9.685017811007106125e-01,-2.490051358208192067e-01,1.194059373341377039e+02
2.955978260931369395e+00,3.732306657951466322e-01,3.384827554655807536e+00,9.030490264045358453e-04,9.235854003032698545e-01,-3.833916963747447393e-01,1.208486059727927113e+02
2.842000393018678572e+00,4.367600976240730293e-01,3.600066746736894086e+00,9.252285545479106829e-04,8.656833835967948643e-01,-5.005910739481143068e-01,1.222912746114477187e+02
2.731372175150810211e+00,5.173484564000683239e-01,3.812496009729827495e+00,9.316771433157864345e-04,8.012268027668003612e-01,-5.983600442089958005e-01,1.237339432501027261e+02
2.625053154177399151e+00,6.149476630539055799e-01,4.021196319686778153e+00,9.268065821887280700e-04,7.355584207367372729e-01,-6.774606635907625130e-01,1.251766118887577335e+02
2.524019566741679377e+00,7.295691582558981869e-01,4.225234229258948204e+00,9.146444214765927149e-04,6.722763318750097916e-01,-7.402997345847583954e-01,1.266192805274127409e+02
2.429268552272043191e+00,8.612838194594742980e-01,4.423658257165674179e+00,8.983041636725513663e-04,6.133735819208027129e-01,-7.897924044021150669e-01,1.280619491660677340e+02
2.341822447671600305e+00,1.010222080023319036e+00,4.615495207910850439e+00,8.799524510040547748e-04,5.596861273406915638e-01,-8.287042081141274830e-01,1.295046178047227272e+02
2.262733181833131546e+00,1.176574250263356047e+00,4.799746407511736201e+00,8.609889000960502421e-04,5.113363211668646713e-01,-8.593802565533206206e-01,1.309472864433777204e+02
2.232230528842490624e+00,1.256737479447668004e+00,4.876374837813847840e+00,8.422631968840185246e-04,4.680607520906601149e-01,-8.836958882698463524e-01,1.315763050594135848e+02
2.172252940002640909e+00,1.458229405381480603e+00,5.042776391408463788e+00,8.242578295552722457e-04,4.294190013449196153e-01,-9.031050004750070803e-01,1.330189736980685780e+02
2.123110183208637203e+00,1.677221043379928389e+00,5.199186638023957308e+00,7.647220470374976094e-04,3.280798764832130732e-01,-9.446496757247897502e-01,1.344616423367235711e+02
2.084926277395035665e+00,1.912697865843537182e+00,5.345518391803487646e+00,6.941666141820093628e-04,2.201075042289444283e-01,-9.754753737100783084e-01,1.359043109753785643e+02
2.057500586340181847e+00,2.163224795008777956e+00,5.481994994219231643e+00,6.148589468779332937e-04,1.093599588812912554e-01,-9.940020228057676599e-01,1.373469796140335575e+02
2.046348136708687537e+00,2.336861444814727129e+00,5.565296031693844903e+00,5.300273656876602468e-04,0.000000000000000000e+00,-9.999998595354860909e-01,1.382949695129041459e+02
2.039493677438592112e+00,2.613547214782957262e+00,5.682529008957256877e+00,5.134819799851677614e-04,-1.502108093229333587e-03,-9.999987400029725082e-01,1.397376381515591675e+02
2.042120777243172203e+00,2.901284452878454267e+00,5.790606758666441145e+00,4.969343146786001086e-04,-3.004314547125676912e-03,-9.999953635644461825e-01,1.411803067902141606e+02
2.053207389362106561e+00,3.198608870408977012e+00,5.890022181392027711e+00,4.803844814769151817e-04,-4.506609199354075744e-03,-9.999897297993985967e-01,1.426229754288691538e+02
2.071754684214400122e+00,3.504100285052972996e+00,5.981234672250281825e+00,4.638325921543090535e-04,-6.008981883859534218e-03,-9.999818383330999483e-01,1.440656440675241470e+02
2.096783431252716934e+00,3.816376958021105992e+00,6.064671897817672352e+00,4.472787585464468559e-04,-7.511422431210410498e-03,-9.999716888366250167e-01,1.455083127061791402e+02
2.127330419503058234e+00,4.134090104975364888e+00,6.140731450321286644e+00,4.307230925466910029e-04,-9.013920668942113426e-03,-9.999592810268783660e-01,1.469509813448341333e+02
2.162444903925829998e+00,4.455918559161198722e+00,6.209782385503408442e+00,4.141657061023234511e-04,-1.051646642190105438e-02,-9.999446146666148838e-01,1.483936499834891265e+02
2.201185064691283610e+00,4.780563565886414068e+00,6.272166650108419006e+00,3.976067112107649782e-04,-1.201904951258883636e-02,-9.999276895644589880e-01,1.498363186221441197e+02
2.242614466373348492e+00,5.106743688078582366e+00,6.328200404513547817e+00,3.810462199157901245e-04,-1.352165976150665992e-02,-9.999085055749212803e-01,1.512789872607991128e+02
2.285798503929965975e+00,5.433189803173265275e+00,6.378175245619481792e+00,3.644843443037396415e-04,-1.502428698749991298e-02,-9.998870625984116467e-01,1.527216558994541060e+02
2.329800822154090678e+00,5.758640172029922510e+00,6.422359334730695757e+00,3.479211964997286572e-04,-1.652692100810290374e-02,-9.998633605812511371e-01,1.541643245381090992e+02
2.373679695046424065e+00,6.081835560942786323e+00,6.460998434788110423e+00,3.313568886638530524e-04,-1.802955163988373410e-02,-9.998373995156797367e-01,1.556069931767640924e+02
2.416484351277132792e+00,6.401514398112702509e+00,6.494316860966252491e+00,3.147915329873930733e-04,-1.953216869878927550e-02,-9.998091794398632493e-01,1.570496618154190855e+02
2.457251231567836758e+00,6.716407946175205090e+00,6.522518348311764136e+00,2.982252416890142865e-04,-2.103476200049020708e-02,-9.997787004378958509e-01,1.584923304540740787e+02
2.495000163435264540e+00,7.025235472539826276e+00,6.545786839779228039e+00,2.816581270109673419e-04,-2.253732136072610776e-02,-9.997459626398013111e-01,1.599349990927290719e+02
2.528730438291788118e+00,7.326699399384993150e+00,6.564287197712762811e+00,2.650903012152855680e-04,-2.403983659565057246e-02,-9.997109662215306614e-01,1.613776677313840651e+02
2.557416775394070640e+00,7.619480415179188171e+00,6.578165841635073896e+00,2.485218765799818608e-04,-2.554229752217632501e-02,-9.996737114049591977e-01,1.628203363700390582e+02
2.580329983285447604e+00,7.902349932554340484e+00,6.586889299875624104e+00,2.319529653952439208e-04,-2.704469395832025114e-02,-9.996341984578772655e-01,1.642630050086940514e+02
2.597373304458006071e+00,8.174246068490596429e+00,6.589340289098325698e+00,2.153836799596293267e-04,-2.854701572354845229e-02,-9.995924276939825992e-01,1.657056736473490446e+02
2.601115071611536766e+00,8.262268631067037461e+00,6.587927898990088238e+00,1.988141325762600399e-04,-3.004925263912113301e-02,-9.995483994728674437e-01,1.661940558252061919e+02
2.606304201514644259e+00,8.509537726720456163e+00,6.577436420256328020e+00,1.822444355490166650e-04,-3.155139452843739450e-02,-9.995021142000034553e-01,1.676367244638611851e+02
2.606062876104649373e+00,8.742996969310739885e+00,6.560972464007920557e+00,1.656747011787332259e-04,-3.305343121737992079e-02,-9.994535723267247151e-01,1.690793931025161783e+02
2.600543775698369142e+00,8.961415404190239187e+00,6.539149265988860371e+00,1.491050417593922661e-04,-3.455535253465942536e-02,-9.994027743502075234e-01,1.705220617411711714e+02
2.589873343234692538e+00,9.163522608852506579e+00,6.512978321688312811e+00,1.325355695743207904e-04,-3.605714831215897642e-02,-9.993497208134486387e-01,1.719647303798261646e+02
2.574150544559116405e+00,9.347993979199973325e+00,6.483663804202000946e+00,1.159663968923873575e-04,-3.755880838527803078e-02,-9.992944123052388550e-01,1.734073990184811578e+02
2.553445398410758571e+00,9.513435817550309537e+00,6.452397727416419926e+00,9.939763596420059667e-05,-3.906032259327622824e-02,-9.992368494601363560e-01,1.748500676571361510e+02
2.527798763585698438e+00,9.658380114678537964e+00,6.420364556641565024e+00,8.282939901830930910e-05,-4.056168077961695706e-02,-9.991770329584357402e-01,1.762927362957911441e+02
2.497221975970096874e+00,9.781279045192794896e+00,6.388745790059148000e+00,6.626179825740490090e-05,-4.206287279231055165e-02,-9.991149635261360462e-01,1.777354049344461373e+02
2.461696332002950793e+00,9.880499155789424393e+00,6.358724528694275513e+00,4.969494585452569968e-05,-4.356388848425715721e-02,-9.990506419349037825e-01,1.791780735731011305e+02
2.421172414397980699e+00,9.954315224861995048e+00,6.331490052586890904e+00,3.312895394926432052e-05,-4.506471771358931677e-02,-9.989840690020371783e-01,1.806207422117561237e+02
2.375569255188015649e+00,1.000090377069337499e+01,6.308242420863321875e+00,1.656393464397761358e-05,-4.656535034401402401e-02,-9.989152455904231065e-01,1.820634108504111168e+02
2.324773330361509238e+00,1.001833618413096794e+01,6.290197113500755499e+00,-0.000000000000000000e+00,-4.806577624515451230e-02,-9.988441726084960059e-01,1.835060794890661100e+02
2.306872655355532320e+00,1.001415842008849566e+01,6.286387336145162763e+00,4.613527224486193429e-02,-1.193880474277963927e-01,-9.917751916569959025e-01,1.839675563247140815e+02
2.246392983274165367e+00,9.971213192796920310e+00,6.280949746815880808e+00,9.424488045410361892e-02,-1.933863069212639618e-01,-9.765857047917230194e-01,1.854102249633691031e+02
2.182760468997999137e+00,9.900638601665884053e+00,6.282041517217633597e+00,1.432381541681351234e-01,-2.683347100079075953e-01,-9.526170870793141399e-01,1.868528936020240963e+02
2.117650375663939322e+00,9.804973516890964191e+00,6.289755640763705635e+00,1.918379568629978715e-01,-3.422469965996360330e-01,-9.198180209286831444e-01,1.882955622406790894e+02
2.052749063169756472e+00,9.686647916571134331e+00,6.304210725725062581e+00,2.387302591109771166e-01,-4.131130303463093623e-01,-8.788318881008443384e-01,1.897382308793340826e+02
1.989759862720478001e+00,9.547992232555964520e+00,6.325551454000742702e+00,2.827346463552530831e-01,-4.791610494741948001e-01,-8.309427227054571041e-01,1.911808995179890758e+02
1.930409079514049608e+00,9.391246269276104286e+00,6.353949140739591606e+00,3.229469139139709566e-01,-5.390701200602975307e-01,-7.778873288925709506e-01,1.926235681566440689e+02
1.876452144211443684e+00,9.218567729270068511e+00,6.389602396977937637e+00,3.588157289843061926e-01,-5.920765985521623254e-01,-7.215930806766113204e-01,1.940662367952990621e+02
1.829474980257774996e+00,9.031844327990690147e+00,6.431476613096201334e+00,3.437069864114792872e-01,-5.774357547015780412e-01,-7.405629322914820678e-01,1.955089054339540553e+02
1.790692991781997812e+00,8.832506678758603513e+00,6.476038672244244232e+00,3.280752708326951095e-01,-5.620873198630121914e-01,-7.592262255199497822e-01,1.969515740726090485e+02
1.780480695240045597e+00,8.759447656197638210e+00,6.491015766907019646e+00,3.119415709661666480e-01,-5.460429543095083327e-01,-7.775149827187283202e-01,1.974512136915125211e+02
1.761029120207316723e+00,8.537725114149781191e+00,6.529701186267232060e+00,2.953317301751915425e-01,-5.293202607253867376e-01,-7.953610694127142278e-01,1.988938823301675143e+02
1.751994744278128957e+00,8.306458052874496900e+00,6.559843738046660100e+00,2.782763995337200758e-01,-5.119429289458954369e-01,-8.126971655942004658e-01,2.003365509688225075e+02
1.753523796860451345e+00,8.067460535224871165e+00,6.576773346915432583e+00,2.608108795921795786e-01,-4.939407536907680085e-01,-8.294577848991169233e-01,2.017792196074775006e+02
1.765469105789001292e+00,7.822774617110729523e+00,6.575825400516138508e+00,2.429748470733353594e-01,-4.753495143287204128e-01,-8.455803113348482336e-01,2.032218882461324938e+02
1.787737942444948880e+00,7.574421067755580772e+00,6.552266137178334837e+00,2.248119676144351986e-01,-4.562107110351232842e-01,-8.610060199291020844e-01,2.046645568847874870e+02
1.820219470857269206e+00,7.324349448800029805e+00,6.503195053217803334e+00,2.063694009285516329e-01,-4.365711578474951726e-01,-8.756810460984570943e-01,2.061072255234424802e+02
1.862711658090443922e+00,7.074388573810342251e+00,6.429454401227997273e+00,1.876972100204455096e-01,-4.164824396913255344e-01,-8.895572689710888881e-01,2.075498941620974733e+02
1.914991762755712479e+00,6.826311642922825662e+00,6.333711730518995608e+00,1.688476909625891975e-01,-3.960002469748168941e-01,-9.025930764483439672e-01,2.089925628007524665e+02
1.976887312082827197e+00,6.581900518363730690e+00,6.218549487727693226e+00,1.498746438260951941e-01,-3.751836073390837911e-01,-9.147539843706794516e-01,2.104352314394074597e+02
2.038745784203330746e+00,6.374974004308496589e+00,6.104126728559092996e+00,1.308326083332077283e-01,-3.540940391287683009e-01,-9.260130884875245050e-01,2.116844654944055151e+02
2.119639939926647010e+00,6.143199161733065239e+00,5.957316098418827366e+00,1.117760894098485114e-01,-3.327946547245411169e-01,-9.363513355696220231e-01,2.131271341330605082e+02
2.209908819351977805e+00,5.920412488673106211e+00,5.798151850455719014e+00,9.275879794769910369e-02,-3.113492437855915895e-01,-9.457576083740686368e-01,2.145698027717155014e+02
2.309576772424696944e+00,5.708496251117844977e+00,5.628971113777994084e+00,7.383293075020114227e-02,-2.898213665731502187e-01,-9.542286276435578696e-01,2.160124714103704946e+02
2.418636472963901607e+00,5.509882837338625272e+00,5.451335197290521073e+00,5.504851098161474970e-02,-2.682734859150460172e-01,-9.617686822691289272e-01,2.174551400490254878e+02
2.536972527837308977e+00,5.328072812909317335e+00,5.265298551832723106e+00,3.645280671905873349e-02,-2.467661632276460792e-01,-9.683892056235496870e-01,2.188978086876804809e+02
2.664449603449236204e+00,5.167141012587624260e+00,5.070146057716392818e+00,1.808984075695214272e-02,-2.253573396579071908e-01,-9.741082214639699144e-01,2.203404773263354741e+02
2.789416340639528702e+00,5.042722627119406553e+00,4.882558775865103229e+00,-0.000000000000000000e+00,-2.041017182454783752e-01,-9.789496864544384724e-01,2.216606960063236613e+02
2.935027645464155732e+00,4.935831146697500671e+00,4.667015223415170944e+00,-6.536585238764471006e-02,-1.311057036312105184e-01,-9.892110997239171866e-01,2.231033646449786829e+02
3.005051084268250960e+00,4.902152447663588042e+00,4.564278304539572062e+00,-1.412509224417365095e-01,-4.383544475362405324e-02,-9.890028466554636744e-01,2.237571668897188317e+02
3.167381888301288306e+00,4.861592597405171468e+00,4.326238300926560143e+00,-2.265768766520312172e-01,5.772967372325352176e-02,-9.722809284041402655e-01,2.251998355283738533e+02
3.247487741830150210e+00,4.858040521422197777e+00,4.207589647723683157e+00,-3.176893506727088701e-01,1.707118671184942593e-01,-9.327008817911935923e-01,2.258867133944258683e+02
3.419596026014096957e+00,4.882016142745441378e+00,3.947919673790543094e+00,-4.080567967088328807e-01,2.884525447371441009e-01,-8.661898060439132685e-01,2.273293820330808899e+02
3.593025429558936334e+00,4.934191315018028767e+00,3.679250771344182436e+00,-4.896681601929793182e-01,4.014881013749517780e-01,-7.739718323993189930e-01,2.287720506717358830e+02
3.764809116391220734e+00,5.010743231904783990e+00,3.403414672510008288e+00,-5.559563770399379434e-01,5.007228463935488039e-01,-6.634675108309141534e-01,2.302147193103908762e+02
3.931948271962300012e+00,5.107964045497129568e+00,3.122215387094292360e+00,-6.042050262925978688e-01,5.807623299776103476e-01,-5.455743783222765098e-01,2.316573879490458694e+02
4.091401131672752989e+00,5.222246714503087084e+00,2.837436180410545461e+00,-6.356291791762704868e-01,6.409015740205109557e-01,-4.303727674908483514e-01,2.331000565877008626e+02
4.240071747302709859e+00,5.350071319357345700e+00,2.550846470837857094e+00,-6.536585558022738329e-01,6.837072200992125870e-01,-3.244609831870274852e-01,2.345427252263558557e+02
4.374798450616189882e+00,5.487991792997722662e+00,2.264208673817597717e+00,-6.621269057880017073e-01,7.129750327387287534e-01,-2.307695025838888137e-01,2.359853938650108489e+02
4.492599855689766386e+00,5.633106763286257035e+00,1.979491311913973650e+00,-6.718222466613609223e-01,7.173394394820301612e-01,-1.846049767868903346e-01,2.374280625036658421e+02
4.590925857133652421e+00,5.783530244157727651e+00,1.699082922090654257e+00,-6.808278127045601646e-01,7.203008792547621608e-01,-1.328161616398431111e-01,2.388707311423208353e+02
4.667396649982532786e+00,5.937897645151235082e+00,1.425595001310889343e+00,-6.886214511164370222e-01,7.212493843162316454e-01,-7.483196299542951846e-02,2.403133997809758284e+02
4.720792845098348955e+00,6.094873335799419145e+00,1.162276531749581787e+00,-6.945100616869903654e-01,7.194109018351467766e-01,-1.018472072633932850e-02,2.417560684196308216e+02
4.725224909559202935e+00,6.117724075898881786e+00,1.126266461466422619e+00,-6.976115081488198921e-01,7.138425284261149528e-01,6.137612164791955011e-02,2.419639373487523812e+02
4.734688019166594763e+00,6.277155144265743836e+00,8.909281361527998655e-01,-6.968634571719695137e-01,7.034603973594527604e-01,1.397311397119899989e-01,2.434066059874073744e+02
4.724860324505395504e+00,6.436335891390357666e+00,6.698427081135593930e-01,-6.910810220869650911e-01,6.871210435369833336e-01,2.242134974525006319e-01,2.448492746260623676e+02
4.697921920150552211e+00,6.593919029858824388e+00,4.625954385420779080e-01,-6.790843069047222125e-01,6.637729690253355574e-01,3.134484801478926719e-01,2.462919432647173608e+02
4.655976906031964013e+00,6.748536527032704235e+00,2.688251138711957311e-01,-6.599009278025228520e-01,6.326748611821451096e-01,4.052817359732891478e-01,2.477346119033723539e+02
4.601061441728060863e+00,6.898794777821985136e+00,8.822264862169222621e-02,-6.330124307016016250e-01,5.936381381397657364e-01,4.968792846589626944e-01,2.491772805420273471e+02
4.535151502379661359e+00,7.043269624514666205e+00,-7.947011012161955823e-02,-5.985684406429110371e-01,5.472094611236250072e-01,5.850449790598206690e-01,2.506199491806823403e+02
4.460170365395489611e+00,7.180501206237812184e+00,-2.344613812299702060e-01,-5.574712431195251172e-01,4.946984421229670970e-01,6.667077804074892367e-01,2.520626178193373335e+02
4.377995855949522230e+00,7.308988619768697959e+00,-3.769102549085797116e-01,-5.112695589171324384e-01,4.380056622831063895e-01,7.394284806068930349e-01,2.535052864579923266e+02
4.290467378202088788e+00,7.427184372495918119e+00,-5.069273080474734350e-01,-4.618862013243127396e-01,3.792988260755285057e-01,8.017440598868957879e-01,2.549479550966473198e+02
4.199392758206387910e+00,7.533488607343836740e+00,-6.245750319256001548e-01,-4.112826209835883096e-01,3.206564729186246465e-01,8.532444151896088069e-01,2.563906237353023130e+02
4.106554923586809736e+00,7.626243078414566945e+00,-7.298680739226024450e-01,-3.611776982988934570e-01,2.637976356854676019e-01,8.944056560969808611e-01,2.578332923739573062e+02
4.013718444290036658e+00,7.703724854966172764e+00,-8.227732941736125571e-01,-3.128886543297960676e-01,2.099536732234945080e-01,9.262937682461495070e-01,2.592759610126122993e+02
3.922635958012294033e+00,7.764139730127654460e+00,-9.032096373860655225e-01,-2.672957586153718590e-01,1.598690799547700381e-01,9.502604141500625712e-01,2.607186296512672925e+02
3.835054503293438000e+00,7.805615309445363970e+00,-9.710478193215373865e-01,-2.248915787646805498e-01,1.138814748733882748e-01,9.677059406045782630e-01,2.621612982899222857e+02
3.752721782733491107e+00,7.826193752957844474e+00,-1.026109826730174923e+00,-1.858682862982416473e-01,7.203008353117969220e-02,9.799309400233497946e-01,2.636039669285772788e+02
3.677392378330054612e+00,7.823824142999965758e+00,-1.068168228804177833e+00,-1.502089654035596855e-01,3.415901884475418954e-02,9.880639797826636928e-01,2.650466355672322720e+02
3.610833940554978749e+00,7.796354448335105936e+00,-1.096945297487007087e+00,-1.177652196089313680e-01,0.000000000000000000e+00,9.930414659270077049e-01,2.664893042058872652e+02
3.588874655610463815e+00,7.775064424498501658e+00,-1.102889338276570985e+00,0.000000000000000000e+00,-1.168706797253571267e-01,9.931471412739065752e-01,2.670526435960811114e+02
3.543431427042895265e+00,7.692689632866802185e+00,-1.104524016067937042e+00,-3.092091725017609716e-08,-1.091259184470465687e-01,9.940279341764434173e-01,2.684953122347361045e+02
3.507907623399438179e+00,7.582902673078893763e+00,-1.092909382653029171e+00,-6.186446805033558892e-08,-1.013683789711749134e-01,9.948489592620340938e-01,2.699379808733910977e+02
3.483502309817315012e+00,7.459707425775621736e+00,-1.071013147666705079e+00,-9.282502249931275314e-08,-9.359945709958684967e-02,9.956099344776818683e-01,2.712447493151986464e+02
3.463670599849601128e+00,7.299532022120399866e+00,-1.035389344893851149e+00,-1.237969300116396795e-07,-8.582055769339969054e-02,9.963106101398190306e-01,2.726874179538536396e+02
3.449366877569568057e+00,7.117712307420742235e+00,-9.896594290180780185e-01,-1.547745244412167640e-07,-7.803309341109873620e-02,9.969507692622894268e-01,2.741300865925086327e+02
3.439028180894210251e+00,6.916746592930668847e+00,-9.351602129885805414e-01,-1.857521292428338369e-07,-7.023848343126143368e-02,9.975302278353482821e-01,2.755727552311636259e+02
3.431123765179250551e+00,6.699069300133306371e+00,-8.731945905719481482e-01,-2.167240626606176075e-07,-6.243815216259285955e-02,9.980488350549154841e-01,2.770154238698186191e+02
3.424148727741791909e+00,6.467060222194928265e+00,-8.050365758760498203e-01,-2.476846429323688258e-07,-5.463352794400130191e-02,9.985064735014643755e-01,2.784580925084736123e+02
3.416617795440498373e+00,6.223053615843135766e+00,-7.319362311694621592e-01,-2.786281934986804938e-07,-4.682604173747843823e-02,9.989030592680764320e-01,2.799007611471286054e+02
3.407059250036308828e+00,5.969347157972793028e+00,-6.551245020562809218e-01,-3.095490482056997841e-07,-3.901712581657327400e-02,9.992385420373445237e-01,2.813434297857835986e+02
3.394008966825677653e+00,5.708210800927711936e+00,-5.758179787077608580e-01,-3.404415564904119358e-07,-3.120821245326396709e-02,9.995129051069606696e-01,2.827860984244385918e+02
3.376004542708997747e+00,5.441895560176947200e+00,-4.952236015682431880e-01,-3.713000885373796165e-07,-2.340073260603489982e-02,9.997261653639775147e-01,2.842287670630935850e+02
3.351579490434512199e+00,5.172642267999877141e+00,-4.145433297371822756e-01,-4.021190403959720891e-07,-1.559611461195896734e-02,9.998783732078861952e-01,2.856714357017485781e+02
3.319257476244724447e+00,4.902690326817578104e+00,-3.349787900835815568e-01,-4.328928390472595503e-07,-7.795782885567824165e-03,9.999696124228044658e-01,2.871141043404035713e+02
3.277546578549908052e+00,4.634286495960406427e+00,-2.577359250753720743e-01,-4.636159474099297807e-07,-1.156627263298117030e-06,9.999999999992237321e-01,2.885567729790585645e+02
3.263585258610328221e+00,4.563104267652683177e+00,-2.378717911734520851e-01,1.351726556876133717e-02,-1.574989982429244595e-01,9.874266297219347344e-01,2.889443194326764797e+02
3.200556509597022536e+00,4.303305323205425914e+00,-1.678629956772803578e-01,2.741955391682599982e-02,-3.194772386944216280e-01,9.471971611122944612e-01,2.903869880713314728e+02
3.125214600558982703e+00,4.051132931876425758e+00,-1.024676462287153200e-01,4.055276092148670658e-02,-4.724945753812131444e-01,8.804001078015448734e-01,2.918296567099864660e+02
3.036372499576281747e+00,3.809459024821500339e+00,-4.251127905662738238e-02,5.194392941761561550e-02,-6.052149264965294151e-01,7.943656091136236386e-01,2.932723253486414592e+02
2.956232089826623888e+00,3.631847726361564277e+00,-4.605255996167741876e-04,4.519035102546811733e-02,-5.024734000345129070e-01,8.634108607331455465e-01,2.943942714782244252e+02
2.839009817382791123e+00,3.419589830220636895e+00,4.812290858088095341e-02,3.716854466043944399e-02,-3.836030363901091755e-01,9.227498088648479202e-01,2.958369401168794184e+02
2.707976465033727020e+00,3.226574048583597421e+00,9.212266771376689811e-02,2.814512391443223585e-02,-2.530235637676762073e-01,9.670506337199443747e-01,2.972796087555344116e+02
2.563551024483626151e+00,3.056082935639657272e+00,1.324894624367547735e-01,1.858427242890467457e-02,-1.176126095430636287e-01,9.928856424053875696e-01,2.987222773941894047e+02
2.406122794114990526e+00,2.911483813063519666e+00,1.701599512521932978e-01,9.038070295903146215e-03,1.496201316921982188e-02,9.998472140518521734e-01,3.001649460328443979e+02
2.236053517887607534e+00,2.796242046822118521e+00,2.060603634684370911e-01,-0.000000000000000000e+00,1.382410334876689184e-01,9.903986150334931349e-01,3.016076146714993911e+02
2.054319091903870742e+00,2.712610643293980495e+00,2.411168744345729142e-01,4.977244306821431569e-02,1.138528236634871182e-01,9.922500886645827523e-01,3.030502833101543843e+02
1.863141744041338033e+00,2.660309355292920230e+00,2.762659805648471911e-01,1.047754341956871754e-01,8.640464396584711382e-02,9.907352551969876853e-01,3.044929519488093774e+02
1.665341896144523215e+00,2.637839212451528859e+00,3.124513290251168529e-01,1.651486640165473196e-01,5.566574354188951607e-02,9.846965236911715547e-01,3.059356205874643706e+02
1.528125250571094051e+00,2.641887497091562675e+00,3.383462458409605134e-01,2.307437905677058587e-01,2.152011754216974146e-02,9.727765353129247394e-01,3.069165274256821476e+02
1.324716651939730649e+00,2.675165387929497207e+00,3.791169143575728873e-01,3.009919352441457474e-01,-1.595740982403215033e-02,9.534931651510102357e-01,3.083591960643371408e+02
1.122295478839047567e+00,2.734762556312309911e+00,4.234540982514325425e-01,3.747795029190054139e-01,-5.641788266288251530e-02,9.253957784146307208e-01,3.098018647029921340e+02
9.236055093603483535e-01,2.819544238817049298e+00,4.723369857367565317e-01,4.503821428379500835e-01,-9.917119201694939157e-02,8.873111067075819536e-01,3.112445333416471271e+02
7.313976481870706481e-01,2.928454869489454104e+00,5.267623475557097201e-01,5.255196619893743870e-01,-1.431706658829308143e-01,8.386484634775240865e-01,3.126872019803021203e+02
5.484032897099607728e-01,3.060422363246187771e+00,5.877593724526604113e-01,5.975768948899814470e-01,-1.870832499814159000e-01,7.796805193603588702e-01,3.141298706189571135e+02
3.770251445504744781e-01,3.213898846178382396e+00,6.564559385502539701e-01,6.639743278970882123e-01,-2.294538987940459573e-01,7.116804059560875029e-01,3.155725392576121067e+02
2.190988412253307149e-01,3.386585260983093093e+00,7.341233064213895654e-01,7.225895360073056883e-01,-2.689282147171526693e-01,6.368217786647938361e-01,3.170152078962670998e+02
7.621468056679372993e-02,3.575881478092913568e+00,8.221187457304082180e-01,7.720836747552275448e-01,-3.044607945725177345e-01,5.578444440386004510e-01,3.184578765349220930e+02
-4.999580321976544728e-02,3.779240964307172934e+00,9.218394745595276385e-01,8.120222581546095997e-01,-3.354385976583673101e-01,4.775989944110817786e-01,3.199005451735770862e+02
-1.578531466360036384e-01,3.994160586784034628e+00,1.034728063765942174e+00,8.427774209518235082e-01,-3.616906936854521470e-01,3.986302307090234809e-01,3.213432138122320794e+02
-2.456231426662059958e-01,4.218170539828331123e+00,1.162278016764048960e+00,8.652892172425816764e-01,-3.834067030085413497e-01,3.229146491131058561e-01,3.227858824508870725e+02
-3.115098811617459940e-01,4.448824354321488705e+00,1.305068467556833145e+00,8.807928776183316932e-01,-4.010132015895611080e-01,2.517783129812979359e-01,3.242285510895420657e+02
-3.546745277281230235e-01,4.683691270081310698e+00,1.462294640900988707e+00,8.905911936887755953e-01,-4.150533505670176426e-01,1.859517192905031646e-01,3.256712197281970589e+02
-3.762578586153340621e-01,4.920357920026932952e+00,1.633235117101990985e+00,8.959039783413476066e-01,-4.260948901691709034e-01,1.256948931495159294e-01,3.271138883668520521e+02
-3.783586676372953095e-01,5.156430083854612434e+00,1.817720821501961126e+00,8.977905864051844986e-01,-4.346722246363473596e-01,7.093743787256295841e-02,3.285565570055070452e+02
-3.628592940516504606e-01,5.389909891195294733e+00,2.015299675273505287e+00,9.001018936462301667e-01,-4.355635366306024325e-01,1.004920953668939597e-02,3.299992256441620384e+02
-3.312728004573543550e-01,5.619570870869188717e+00,2.224899450426831571e+00,8.988800980929206874e-01,-4.347298097678738427e-01,-5.499601577977623196e-02,3.314418942828170316e+02
-2.849003056656898569e-01,5.844566062625726310e+00,2.445159018861383871e+00,8.934257372445096879e-01,-4.318343393063008850e-01,-1.237317882558679333e-01,3.328845629214720248e+02
-2.586849625758196880e-01,5.940748532456612274e+00,2.545780803478521204e+00,8.830922379264544153e-01,-4.265670275935832256e-01,-1.954192167726130080e-01,3.335164603826769962e+02
-1.862503870169940623e-01,6.154198048850910929e+00,2.783943075004758239e+00,8.673644812896764700e-01,-4.186824152597575788e-01,-2.690425463553048901e-01,3.349591290213319894e+02
-1.020308007913227760e-01,6.360621439351991313e+00,3.029413474070433931e+00,8.459419070020877118e-01,-4.080397583095608516e-01,-3.433450824117718625e-01,3.364017976599869826e+02
-7.143977310595103596e-03,6.559110040032928524e+00,3.280969632655180046e+00,8.188086095893025718e-01,-3.946366418865276948e-01,-4.169105200675053968e-01,3.378444662986419758e+02
9.732768766499896862e-02,6.748731826671382272e+00,3.537412722107241780e+00,7.862709573757683534e-01,-3.786267369735482613e-01,-4.882824752498866605e-01,3.392871349372969689e+02
2.103327805555582353e-01,6.928527568708006790e+00,3.797562816137323161e+00,7.489485984368546845e-01,-3.603149367047014384e-01,-5.561017382520557772e-01,3.407298035759519621e+02
3.308465690682847460e-01,7.097506906980126651e+00,4.060254326925450741e+00,7.077167981150113141e-01,-3.401289839775987200e-01,-6.192327574702446435e-01,3.421724722146069553e+02
4.578667785257259371e-01,7.254644339407247067e+00,4.324331496687977783e+00,6.636122039499245950e-01,-3.185735420374137816e-01,-6.768528208425076409e-01,3.436151408532619485e+02
5.904094282539876781e-01,7.398875098566760400e+00,4.588643927266612188e+00,6.177239182269022022e-01,-2.961773509647857572e-01,-7.284889413202408903e-01,3.450578094919169416e+02
7.275047109948491464e-01,7.529090904794856876e+00,4.852042130448029233e+00,5.710930853895126447e-01,-2.734446970325633552e-01,-7.740030267932138663e-01,3.465004781305719348e+02
8.681928983606493899e-01,7.644135578078352644e+00,5.113373081803028519e+00,5.246377246857127918e-01,-2.508192408741638513e-01,-8.135385462557421787e-01,3.479431467692269280e+02
1.011520255337969409e+00,7.742800491570322130e+00,5.371475760848013259e+00,4.791095088962391002e-01,-2.286633769037966224e-01,-8.474474252413284336e-01,3.493858154078819211e+02
1.156738751654657893e+00,7.824256073257802591e+00,5.625001996064639798e+00,4.443929021544845703e-01,-2.120942702907823441e-01,-8.703625503343622727e-01,3.508284840465369143e+02
1.303510492510657315e+00,7.888482950144164896e+00,5.872236586029316641e+00,4.079960618938822670e-01,-1.947232428991723663e-01,-8.919764975344997016e-01,3.522711526851919075e+02
1.451708084023163980e+00,7.935832850697888574e+00,6.111265329318250394e+00,3.700734529817758522e-01,-1.766240157833894042e-01,-9.120578909513881172e-01,3.537138213238469007e+02
1.601211862445036438e+00,7.966592774537171628e+00,6.340142284691302699e+00,3.308180927429313356e-01,-1.578887098311687609e-01,-9.303926831299664801e-01,3.551564899625018938e+02
1.751887994759756095e+00,7.980983681905015281e+00,6.556885005563708013e+00,2.904577939731143310e-01,-1.386260526762025103e-01,-9.467930541779902009e-01,3.565991586011568870e+02
1.839196872116471759e+00,7.979989395514787809e+00,6.673799027591245547e+00,2.492491902890597855e-01,-1.189585271921135001e-01,-9.611054624485968478e-01,3.574298025643662982e+02
1.991519307546008255e+00,7.962208642409457582e+00,6.862548721564555088e+00,2.074698541463226298e-01,-9.901860967887937681e-02,-9.732171261120333705e-01,3.588724712030212913e+02
2.144232714232177095e+00,7.928272460406801336e+00,7.036871257254654566e+00,1.654090484435047914e-01,-7.894435590450121776e-02,-9.830603416697459851e-01,3.603151398416762845e+02
2.297056955821349167e+00,7.878135710503695321e+00,7.196641783585345564e+00,1.233578199524565239e-01,-5.887467302162883998e-02,-9.906142645516334833e-01,3.617578084803312777e+02
2.449711816114498397e+00,7.811692216131353561e+00,7.341679163040192080e+00,8.159921436884522150e-02,-3.894464952962953253e-02,-9.959040528521819757e-01,3.632004771189862709e+02
2.601915490351211613e+00,7.728774356291592262e+00,7.471745271029755386e+00,4.039935594886219505e-02,-1.928129787548416019e-02,-9.989975593519504482e-01,3.646431457576412640e+02
2.753383066761867060e+00,7.629152430229162896e+00,7.586544074836518270e+00,-0.000000000000000000e+00,-0.000000000000000000e+00,-1.000000000000000000e+00,3.660858143962962572e+02
2.903824990905421011e+00,7.512533791262967497e+00,7.685720488574663278e+00,0.000000000000000000e+00,8.782456495348517312e-04,-9.999996143422152928e-01,3.675284830349512504e+02
3.052854876022072617e+00,7.379083647205107788e+00,7.769223325766932753e+00,0.000000000000000000e+00,1.756507557774565501e-03,-9.999984573394098408e-01,3.689711516736062435e+02
3.199901660285435323e+00,7.229948459171641417e+00,7.837669427388317622e+00,0.000000000000000000e+00,2.634783692786916293e-03,-9.999965289514219924e-01,3.704138203122612367e+02
3.344304686685392713e+00,7.066739732730006551e+00,7.891981721741650802e+00,0.000000000000000000e+00,3.513072022432753034e-03,-9.999938291434428139e-01,3.718564889509162299e+02
3.485403751465628197e+00,6.891018780379895681e+00,7.933028468262707911e+00,0.000000000000000000e+00,4.391370514389500088e-03,-9.999903578860175335e-01,3.732991575895712231e+02
3.537779669029354146e+00,6.819820666789694563e+00,7.943886067569319032e+00,0.000000000000000000e+00,5.269677136174662213e-03,-9.999861151550457627e-01,3.738491573608022804e+02
3.670916158511852156e+00,6.623139557291473523e+00,7.960316669114750887e+00,0.000000000000000000e+00,6.147989855169338526e-03,-9.999811009317829402e-01,3.752918259994572736e+02
3.799005312665592271e+00,6.417648048273707495e+00,7.965287276487467594e+00,0.000000000000000000e+00,7.026306638641734506e-03,-9.999753152028402203e-01,3.767344946381122668e+02
3.921358515535408262e+00,6.204759594550433022e+00,7.959475276020215873e+00,0.000000000000000000e+00,7.904625453770682680e-03,-9.999687579601852505e-01,3.781771632767672600e+02
4.037274283159644206e+00,5.985863632550190161e+00,7.943516347436952785e+00,0.000000000000000000e+00,8.782944267669163738e-03,-9.999614292011421712e-01,3.796198319154222531e+02
4.146035381812327003e+00,5.762331075574193662e+00,7.918006922627421673e+00,0.000000000000000000e+00,9.661261047407830246e-03,-9.999533289283925042e-01,3.810625005540772463e+02
4.246905921857189625e+00,5.535519756706797523e+00,7.883506492613520322e+00,0.000000000000000000e+00,1.053957376003852690e-02,-9.999444571499742640e-01,3.825051691927322395e+02
4.339128415589620147e+00,5.306779840729680231e+00,7.840539771630779420e+00,0.000000000000000000e+00,1.141788037261783594e-02,-9.999348138792831797e-01,3.839478378313872327e+02
4.421920787447076506e+00,5.077459226349446020e+00,7.789598726695255770e+00,0.000000000000000000e+00,1.229617885223057566e-02,-9.999243991350715843e-01,3.853905064700422258e+02
4.494473324927181324e+00,4.848908960090041909e+00,7.731144480505973249e+00,0.000000000000000000e+00,1.317446716601335457e-02,-9.999132129414490811e-01,3.868331751086972190e+02
4.555945558466444112e+00,4.622488683325811643e+00,7.665609095043171450e+00,0.000000000000000000e+00,1.405274328117806990e-02,-9.999012553278815441e-01,3.882758437473522122e+02
4.605463058401448428e+00,4.399572134139853929e+00,7.593397242761242616e+00,0.000000000000000000e+00,1.493100516503545992e-02,-9.998885263291911185e-01,3.897185123860072054e+02
4.642114136958651827e+00,4.181552725986690255e+00,7.514887771840583319e+00,0.000000000000000000e+00,1.580925078501860953e-02,-9.998750259855561096e-01,3.911611810246621985e+02
4.664946442998766152e+00,3.969849225518953695e+00,7.430435171552633555e+00,0.000000000000000000e+00,1.668747810870646955e-02,-9.998607543425092059e-01,3.926038496633171917e+02
4.672963436976373508e+00,3.765911552407079643e+00,7.340370943406090198e+00,0.000000000000000000e+00,1.756568510384737269e-02,-9.998457114509381460e-01,3.940465183019721849e+02
4.665120733264571662e+00,3.571226724541071817e+00,7.245004883377801796e+00,0.000000000000000000e+00,1.844386973838255117e-02,-9.998298973670840528e-01,3.954891869406271780e+02
4.640322296637668487e+00,3.387324972656890587e+00,7.144626280187861056e+00,0.000000000000000000e+00,1.932202998046963702e-02,-9.998133121525407674e-01,3.969318555792821712e+02
4.597416479301236869e+00,3.215786049178890327e+00,7.039505034253746629e+00,0.000000000000000000e+00,2.020016379850617799e-02,-9.997959558742540720e-01,3.983745242179371644e+02
4.535191884407628216e+00,3.058245756917982394e+00,6.929892701651634290e+00,0.000000000000000000e+00,2.107826916115311186e-02,-9.997778286045204688e-01,3.998171928565921576e+02
4.452373041494842809e+00,2.916402724216569986e+00,6.816023467122833246e+00,0.000000000000000000e+00,2.195634403735827189e-02,-9.997589304209856254e-01,4.012598614952471507e+02
4.347615878736582395e+00,2.792025454189320577e+00,6.698115049888900607e+00,0.000000000000000000e+00,2.283438639637984727e-02,-9.997392614066433758e-01,4.027025301339021439e+02
4.219502976289740026e+00,2.686959676878269310e+00,6.576369545779075843e+00,0.000000000000000000e+00,2.371239420780988857e-02,-9.997188216498343882e-01,4.041451987725571371e+02
4.067374209695825193e+00,2.602308573055719165e+00,6.450839227803241371e+00,2.029129961862974427e-03,1.897092502790258955e-02,-9.998179767513601934e-01,4.055878674112121303e+02
3.892152881010055854e+00,2.537602593121665695e+00,6.321291767218210289e+00,4.058367929696648016e-03,1.422857243811643038e-02,-9.998905326965149554e-01,4.070305360498671234e+02
3.769238871428072457e+00,2.508870755108081774e+00,6.237644501202425751e+00,6.087551893453316612e-03,9.485714957043252932e-03,-9.999364794444186577e-01,4.079319309344608087e+02
3.552391518764170364e+00,2.480690753936227733e+00,6.099175752383830584e+00,8.116519843085624741e-03,4.742731254424300234e-03,-9.999558133267114624e-01,4.093745995731158018e+02
3.316789306237759583e+00,2.469464991802299281e+00,5.955761553490003024e+00,1.014510983321466504e-02,0.000000000000000000e+00,-9.999485370490184266e-01,4.108172682117707950e+02
3.063840961318586409e+00,2.474145300940575609e+00,5.806965415798082120e+00,4.723750816854135892e-02,5.100349658517703416e-02,-9.975807040826886185e-01,4.122599368504257882e+02
2.794880581430923439e+00,2.493735998483330274e+00,5.652330033494013861e+00,8.491757548568787395e-02,1.028723909916430396e-01,-9.910632051212955318e-01,4.137026054890807814e+02
2.511943458249507266e+00,2.527040629594409005e+00,5.491414050943362213e+00,1.227207834064554665e-01,1.549701476500119079e-01,-9.802672404285676100e-01,4.151452741277357745e+02
2.233069011567026863e+00,2.570146069803728839e+00,5.332161580849100524e+00,1.601599268888644068e-01,2.066268627063546637e-01,-9.652223253878262632e-01,4.165163142319929648e+02
1.933271158134005185e+00,2.625713273296927053e+00,5.157581518701383594e+00,1.967555270317479788e-01,2.571809744174259338e-01,-9.461211386393195699e-01,4.179589828706479580e+02
1.631278468214141686e+00,2.689662113985183733e+00,4.975602885606985382e+00,2.320660614383679154e-01,3.060209735409380460e-01,-9.233073739993308271e-01,4.194016515093029511e+02
1.331262966778099077e+00,2.760122146683891220e+00,4.785794170907466949e+00,2.657136782167191513e-01,3.526211201874115408e-01,-8.972483417684966600e-01,4.208443201479579443e+02
1.037391688606177365e+00,2.835219918144559426e+00,4.587693577580206572e+00,3.532833449224508371e-01,2.648814910786053689e-01,-8.972339014350602104e-01,4.222869887866129375e+02
7.538428951011266754e-01,2.913071667149670585e+00,4.380807236034140573e+00,5.067846191049838467e-01,1.799423229188937268e-01,-8.430836911369885556e-01,4.237296574252679306e+02
4.856254912394379897e-01,2.991923474335253630e+00,4.164657623222370653e+00,6.723995127732211863e-01,6.689986014440334194e-02,-7.371589407549731243e-01,4.251723260639229238e+02
2.394029514325902441e-01,3.070284521992661109e+00,3.938832044982267799e+00,8.178711887174369144e-01,-6.501154241105427944e-02,-5.717169037375600116e-01,4.266149947025779170e+02
2.271784435031009089e-02,3.146762379516778729e+00,3.702930710387811519e+00,9.094175945742997147e-01,-1.926364914357837910e-01,-3.685794634078322640e-01,4.280576633412329102e+02
-1.039794609694836558e-01,3.198408886489991776e+00,3.529831073851250167e+00,9.405061822640816693e-01,-2.949856242478217094e-01,-1.686167328890132433e-01,4.290726805706682967e+02
-2.444382270353952502e-01,3.268356978787878564e+00,3.274394817848075956e+00,9.302570451933813711e-01,-3.669084761464080913e-01,0.000000000000000000e+00,4.305153492093232899e+02
-3.489162515427352007e-01,3.334962213867174619e+00,3.010724920884334743e+00,9.315734289979532567e-01,-3.606318647248247244e-01,4.599570121317004406e-02,4.319580178479782830e+02
-4.240967220363549561e-01,3.398316443541435916e+00,2.740014115116444327e+00,9.307687277095421097e-01,-3.531031487999005125e-01,9.480370153931488852e-02,4.334006864866332762e+02
-4.765477591641658628e-01,3.458543851615053288e+00,2.463427898821866968e+00,9.274355087628897154e-01,-3.441800688822840848e-01,1.462992046113245348e-01,4.348433551252882694e+02
-5.112300912078016069e-01,3.515813994831501255e+00,2.182358476651580226e+00,9.211534475046518899e-01,-3.337312573745753186e-01,2.002492796528353436e-01,4.362860237639432626e+02
-5.299983729296944279e-01,3.570341433049597502e+00,1.898679576770884836e+00,9.115123023637032862e-01,-3.216476567386392649e-01,2.562969128845747901e-01,4.377286924025982557e+02
-5.310486822620321679e-01,3.587657716239941230e+00,1.803856919951222215e+00,8.981419447203282669e-01,-3.078556780711219076e-01,3.139521119746713218e-01,4.382095887942860486e+02
-5.187238406062295581e-01,3.637137414536372404e+00,1.520136985517017481e+00,8.807476049619995528e-01,-2.923307765678740955e-01,3.725941135135191207e-01,4.396522574329410418e+02
-4.909824956516400940e-01,3.684301676355296706e+00,1.238981777307912813e+00,8.591465575033750968e-01,-2.751094503243811107e-01,4.314881030484113977e-01,4.410949260715960349e+02
-4.479137441444889789e-01,3.729350734565032965e+00,9.625141237600607358e-01,8.333007172373414484e-01,-2.562972595653342234e-01,4.898179553579391499e-01,4.425375947102510281e+02
-3.895455355382481111e-01,3.772477002119996037e+00,6.928749845069578361e-01,8.033387964027466355e-01,-2.360705911342863839e-01,5.467334398001415519e-01,4.439802633489060213e+02
-3.158448329457615444e-01,3.813865405650081364e+00,4.322317314929639553e-01,7.695624461745981248e-01,-2.146707233516098323e-01,6.014067857727125599e-01,4.454229319875610145e+02
-2.267175339313083349e-01,3.853693690240610259e+00,1.827865322530732584e-01,7.324333861059588724e-01,-1.923901904357957493e-01,6.530906135762766240e-01,4.468656006262160076e+02
-1.220081510307919614e-01,3.892132694959323569e+00,-5.321513221803427646e-02,6.925423639608474513e-01,-1.695531162109751022e-01,7.011681787578988301e-01,4.483082692648710008e+02
-1.499250950362876218e-03,3.929346598568188575e+00,-2.734757820650904336e-01,6.505646945529965919e-01,-1.464925257074057019e-01,7.451882434076851913e-01,4.497509379035259940e+02
1.350893495387901766e-01,3.965493134731774116e+00,-4.756370520425278192e-01,6.072097669995156766e-01,-1.235281804940156630e-01,7.848803013735481393e-01,4.511936065421809872e+02
2.876493008162890885e-01,4.000666050400360163e+00,-6.573538942888196290e-01,5.631724623754398307e-01,-1.009480716523536159e-01,8.201501475045012146e-01,4.526362751808359803e+02
4.550993083465780242e-01,4.034810564455376003e+00,-8.169898289259284185e-01,5.190929388115391729e-01,-7.899557368414693304e-02,8.510594692583545173e-01,4.540789438194909735e+02
6.357010887294943791e-01,4.067756953696593847e+00,-9.541482857529062223e-01,4.755285116087781816e-01,-5.786287237291200952e-02,8.777952623749435412e-01,4.555216124581459667e+02
8.063052895744159398e-01,4.095834485988072871e+00,-1.056182744556874775e+00,4.329384361435499318e-01,-3.769007918190272338e-02,9.006352027546109529e-01,4.568037897639400171e+02
1.007907023163151727e+00,4.125888416943454651e+00,-1.148662914625737663e+00,3.916801194710556322e-01,-1.856869863600691881e-02,9.199140652485452430e-01,4.582464584025950103e+02
1.217448995878682272e+00,4.154187680365715174e+00,-1.218769132542166567e+00,3.520140075390099099e-01,-5.478630810373027321e-04,9.359945717483463268e-01,4.596891270412500035e+02
1.433290707167667044e+00,4.180640815589629966e+00,-1.266083060309861397e+00,1.788580277785865591e-01,-3.086974169559716236e-04,9.838748449904891613e-01,4.611317956799049966e+02
1.653954923272429767e+00,4.205329838346619553e+00,-1.289505278891615037e+00,-7.069497921097834560e-05,-5.956837023416438096e-05,9.999999957269145590e-01,4.625744643185599898e+02
1.714391655876819076e+00,4.211613267078634593e+00,-1.289111467222677776e+00,-4.536434309609979620e-02,-1.147824536094352782e-04,9.989705016668148918e-01,4.629632227177748973e+02
1.941366263366756328e+00,4.233561868805668205e+00,-1.262933830064223217e+00,-9.114239390996586865e-02,-1.704625909449047677e-04,9.958378557651168528e-01,4.644058913564298905e+02
