3.297158191917068937e+00,2.363636328975406098e+00,4.508055426681700339e+00,1.566706055863261986e-05,9.988833783824235812e-01,4.724400645435460760e-02,1.537765288846654244e+02
3.367179200597220312e+00,2.097952180111533060e+00,4.340652749289763079e+00,1.523035136329138079e-05,9.829166105994333602e-01,1.840514503495099818e-01,1.555019944268358643e+02
3.440402919041446239e+00,1.848279323302820298e+00,4.168238215595120977e+00,1.462728101492133178e-05,9.544521182127816417e-01,2.983641295886236833e-01,1.572274599690063042e+02
3.516702238189339802e+00,1.617875979351208526e+00,3.989906348672821235e+00,1.396099308180933874e-05,9.201568846415771885e-01,3.915498786256971231e-01,1.589529255111767441e+02
3.595725469548067377e+00,1.409976207882377652e+00,3.804776038156001849e+00,1.329577719119650295e-05,8.843840977285992722e-01,4.667598606435578446e-01,1.606783910533471840e+02
3.676625252003782762e+00,1.227678384776493381e+00,3.612042717681038351e+00,1.266572645162142916e-05,8.495945664073484282e-01,5.274363208679212489e-01,1.624038565955176239e+02
3.758321461772651251e+00,1.074098502742013794e+00,3.410916878949556530e+00,1.208571255810433518e-05,8.169960615181458552e-01,5.766432478732180789e-01,1.641293221376880638e+02
3.839762924318558035e+00,9.519710807016996679e-01,3.200923466489624225e+00,1.155976554576402764e-05,7.870591709792069679e-01,6.168775091084902629e-01,1.658547876798585037e+02
3.919913058831288044e+00,8.622085458982593487e-01,2.982702694150981326e+00,1.108637265608019557e-05,7.598557329500573720e-01,6.500917358188947892e-01,1.675802532220289436e+02
3.997725882373863726e+00,8.035499175801937843e-01,2.758095425152511382e+00,1.066151274313051980e-05,7.352593821470956303e-01,6.777858370097469276e-01,1.693057187641993835e+02
4.072127941685335983e+00,7.740095826935695644e-01,2.529349897761529853e+00,1.028028287137767323e-05,7.130573246083257155e-01,7.011057350476692651e-01,1.710311843063698234e+02
4.142011315117163583e+00,7.717725140011714169e-01,2.298691498100018826e+00,9.937718622089481145e-06,6.930097228308421675e-01,7.209282377346314385e-01,1.727566498485402633e+02
4.206228772929743620e+00,7.951844884348665543e-01,2.068335049046569729e+00,9.629174571917098073e-06,6.748796007194219904e-01,7.379278585607623731e-01,1.744821153907107032e+02
4.263588642626269021e+00,8.427432389203375340e-01,1.840497040848079635e+00,9.350473658541063086e-06,6.584466756942232157e-01,7.526273813646399136e-01,1.762075809328811431e+02
4.312849358050660165e+00,9.130904930708119149e-01,1.617407870945498427e+00,9.097939968276172440e-06,6.435126733498067741e-01,7.654354572107385790e-01,1.779330464750515830e+02
4.352713668853980700e+00,1.005004857212083991e+00,1.401324160597901880e+00,8.868376252058997872e-06,6.299022887989650377e-01,7.766743889733824791e-01,1.796585120172220229e+02
4.372130926337629120e+00,1.079915262774306051e+00,1.263472483482345643e+00,8.659018242240091825e-06,6.174620519088290793e-01,7.866006702117408489e-01,1.808079789710990326e+02
4.389363911237778026e+00,1.212027349748745930e+00,1.067779206109413126e+00,8.467482058952190987e-06,6.060582983568790771e-01,7.954202278802481318e-01,1.825334445132694725e+02
4.393383063791094223e+00,1.363000535125489909e+00,8.856118764511089481e-01,-1.347823947234613826e-03,5.200429710750499313e-01,8.541390352899475014e-01,1.842589100554399124e+02
4.382608738373177992e+00,1.532103906383018188e+00,7.194531066645921680e-01,-2.754622821785888444e-03,4.237656677571806640e-01,9.057676693741174567e-01,1.859843755976103523e+02
4.356440056085859602e+00,1.719702672404240573e+00,5.707036774504343768e-01,-4.162480327204056904e-03,3.198301153191381863e-01,9.474657624909051945e-01,1.877098411397807922e+02
4.316349420614688626e+00,1.926663314571070540e+00,4.383308614855007113e-01,-5.518126543001202963e-03,2.118828339110715442e-01,9.772794968550545525e-01,1.894353066819512321e+02
4.287952783335694740e+00,2.049772158693261126e+00,3.737482645517755664e-01,-6.773995230828161809e-03,1.040085942457457113e-01,9.945533295463026002e-01,1.903781708735612881e+02
4.226050540255469556e+00,2.291178993355166060e+00,2.678147188581213589e-01,-7.896110403326194946e-03,0.000000000000000000e+00,9.999688252343162942e-01,1.921036364157317280e+02
4.156550704985925826e+00,2.546398736361167536e+00,1.719731808193427636e-01,-7.018837925459515438e-03,-1.285145358400441747e-07,9.999753676537036506e-01,1.938291019579021679e+02
4.081766616536695480e+00,2.812885751669248702e+00,8.374534445758724521e-02,-6.141555318772345257e-03,-2.570296652022759893e-07,9.999811404712592999e-01,1.955545675000726078e+02
4.003961611213602723e+00,3.088138405078884041e+00,6.949478859935032940e-04,-5.264264608787139026e-03,-3.855450913509578727e-07,9.999861436629909894e-01,1.972800330422430477e+02
3.925361957375112620e+00,3.369685522841590952e+00,-7.958568012664757330e-02,-4.386967821105871961e-03,-5.140605175448699391e-07,9.999903772102370914e-01,1.990054985844134876e+02
3.848169473713604294e+00,3.655072915857027649e+00,-1.594889157092973520e-01,-3.509666981386648857e-03,-6.425756470407366330e-07,9.999938410996673799e-01,2.007309641265839275e+02
3.774073509557092532e+00,3.942127913754271074e+00,-2.405798009593912989e-01,-2.632364115320326523e-03,-7.710901830966519453e-07,9.999965353232829202e-01,2.024564296687543674e+02
3.703762989899469282e+00,4.229230781593832589e+00,-3.227794363401850775e-01,-1.755061248607120601e-03,-8.996038289755052382e-07,9.999984598784162904e-01,2.041818952109248073e+02
3.637435140468936012e+00,4.515035793290667065e+00,-4.051897950050773467e-01,-8.777604069332218184e-04,-1.028116287948407599e-06,9.999996147677312486e-01,2.059073607530952472e+02
3.586851550336401129e+00,4.745116834522224991e+00,-4.716218124422145719e-01,-4.636159474099297807e-07,-1.156627263298117030e-06,9.999999999992237321e-01,2.073095153913473041e+02
3.528909874945717284e+00,5.024216146629643553e+00,-5.518609309907251959e-01,-4.328928390472595503e-07,-7.795782885567816359e-03,9.999696124228044658e-01,2.090349809335177440e+02
3.475621176392689637e+00,5.297912160044414343e+00,-6.297044383327937700e-01,-4.021190403959720891e-07,-1.559611461195896560e-02,9.998783732078861952e-01,2.107604464756881839e+02
3.427233023553185820e+00,5.564777426095403712e+00,-7.042302515673489749e-01,-3.713000885373796165e-07,-2.340073260603488942e-02,9.997261653639775147e-01,2.124859120178586238e+02
3.384008568800142669e+00,5.823344481390515526e+00,-7.744979669450763327e-01,-3.404415564904119887e-07,-3.120821245326396362e-02,9.995129051069606696e-01,2.142113775600290637e+02
3.346227658594178145e+00,6.072097566483710906e+00,-8.395436668032015826e-01,-3.095490482056998370e-07,-3.901712581657326012e-02,9.992385420373445237e-01,2.159368431021995036e+02
3.314187968947750917e+00,6.309464067193301773e+00,-8.983745966525028548e-01,-2.786281934986804938e-07,-4.682604173747843129e-02,9.989030592680764320e-01,2.176623086443699435e+02
3.288206169656212374e+00,6.533805630819317756e+00,-9.499636830235828056e-01,-2.476846429323688258e-07,-5.463352794400129497e-02,9.985064735014643755e-01,2.193877741865403834e+02
3.268619120955072344e+00,6.743408907670630725e+00,-9.932438617990210217e-01,-2.167240626606176075e-07,-6.243815216259285261e-02,9.980488350549154841e-01,2.211132397287108233e+02
3.255785106034164489e+00,6.936475866200600748e+00,-1.027102185709954707e+00,-1.857521292428338369e-07,-7.023848343126141980e-02,9.975302278353482821e-01,2.228387052708812632e+02
3.250085102609648224e+00,7.111113627656440173e+00,-1.050373678457764859e+00,-1.547745244412167905e-07,-7.803309341109872233e-02,9.969507692622894268e-01,2.245641708130517031e+02
3.251924096522701646e+00,7.265323763455040940e+00,-1.061834901522766383e+00,-1.237969300116397060e-07,-8.582055769339969054e-02,9.963106101398190306e-01,2.262896363552221430e+02
3.261732440095711727e+00,7.396990995489622023e+00,-1.060197198134853469e+00,-9.282502249931272667e-08,-9.359945709958683580e-02,9.956099344776818683e-01,2.280151018973925829e+02
3.279967257727624652e+00,7.503871236233732311e+00,-1.044099577099026899e+00,-6.186446805033557568e-08,-1.013683789711749134e-01,9.948489592620340938e-01,2.297405674395630228e+02
3.289281082447584215e+00,7.531659470136215617e+00,-1.033154925032043536e+00,-3.092091725017609054e-08,-1.091259184470465549e-01,9.940279341764434173e-01,2.303381826824545158e+02
3.325138173846985623e+00,7.583477803241112092e+00,-9.850448008943695211e-01,0.000000000000000000e+00,-1.168706797253571267e-01,9.931471412739065752e-01,2.320636482246249557e+02
3.370651721097546183e+00,7.605139107821496047e+00,-9.194317102732144642e-01,-1.177652196089313680e-01,0.000000000000000000e+00,9.930414659270077049e-01,2.337891137667953956e+02
3.394506590722522699e+00,7.601506107409636392e+00,-8.837906812649037880e-01,-1.591769992450977611e-01,6.911414461693791977e-02,9.848278620780360759e-01,2.345302884015720792e+02
3.459237571615672913e+00,7.565447096900561164e+00,-7.847704302881568506e-01,-2.027319006002768487e-01,1.432534022999638335e-01,9.686992511654399785e-01,2.362557539437425191e+02
3.531290593341717798e+00,7.506237597882684298e+00,-6.717741297146241353e-01,-2.474681629207278466e-01,2.211058492776697415e-01,9.433301181218801679e-01,2.379812194859129590e+02
3.608577951951357665e+00,7.429140908057770609e+00,-5.472267665192565023e-01,-2.921118567439609515e-01,3.007601643529817514e-01,9.078623170326891589e-01,2.397066850280833989e+02
3.689083570061667761e+00,7.339337635758711009e+00,-4.134895408184782739e-01,-3.351946761102570504e-01,3.798435184713469526e-01,8.621852646517726981e-01,2.414321505702538389e+02
3.770851187952338535e+00,7.241953940797206890e+00,-2.728729048080948960e-01,-3.752524097352129551e-01,4.558122263406023111e-01,8.071064634274336402e-01,2.431576161124242788e+02
3.851973116776964190e+00,7.142089566367805453e+00,-1.276493214614301264e-01,-4.110533094389358100e-01,5.263303017854357169e-01,7.443195484613787105e-01,2.448830816545947187e+02
3.930579490034913359e+00,7.044845813402483614e+00,1.993418655792884853e-02,-4.417806207842165378e-01,5.896156234891635206e-01,6.761533107491208838e-01,2.466085471967651586e+02
4.004827953455393441e+00,6.955353608954380817e+00,1.676436284678907984e-01,-4.671094999044584362e-01,6.446403470920281098e-01,6.051838877565034469e-01,2.483340127389355985e+02
4.072893737130844904e+00,6.878801821178115006e+00,3.132457089018991780e-01,-4.871673838184982785e-01,6.911414933260329185e-01,5.338458357489559436e-01,2.500594782811060384e+02
4.110328629705708003e+00,6.842283032537570975e+00,4.010920920977951165e-01,-5.024143593103287397e-01,7.294795710168736624e-01,4.641544646212399372e-01,2.511312277370609252e+02
4.161593903320411236e+00,6.804571060319938525e+00,5.359165818442337414e-01,-4.895684333580935244e-01,7.118622278710884377e-01,5.035622281205296424e-01,2.528566932792313651e+02
4.203037898628984692e+00,6.789681638798439778e+00,6.604911995192319640e-01,-4.750043555330145661e-01,6.918001811966675296e-01,5.438596983790244810e-01,2.545821588214018050e+02
4.233981088713404617e+00,6.798919956300834677e+00,7.704545547437687825e-01,-4.586165314687377648e-01,6.691360120768127251e-01,5.847459913548135324e-01,2.563076243635722449e+02
4.253696502474331176e+00,6.833730921714535889e+00,8.613645713287138017e-01,-4.403273032587995406e-01,6.437510592452265756e-01,6.258565648177558671e-01,2.580330899057426564e+02
4.261406834645036668e+00,6.895707586099436348e+00,9.286739573993799679e-01,-4.200970987033441628e-01,6.155800633043260195e-01,6.667680356190408553e-01,2.597585554479130678e+02
4.256802261488020989e+00,6.985342504607016778e+00,9.698461302171927922e-01,-3.979341544561097455e-01,5.846253201222127993e-01,7.070089418029317230e-01,2.614840209900834793e+02
4.240547274282052470e+00,7.100767404974301478e+00,9.864822444670454660e-01,-3.739025181482543148e-01,5.509684948931451443e-01,7.460768221554510138e-01,2.632094865322538908e+02
4.237197171385704841e+00,7.117861634430679985e+00,9.860253851866216390e-01,-3.481269138631694071e-01,5.147780563081392202e-01,7.834610421633737554e-01,2.634230972097987546e+02
4.199940039493895050e+00,7.276957187428533480e+00,9.639732182823883555e-01,-3.207932090122369573e-01,4.763104879413911363e-01,8.186696746116012280e-01,2.651485627519691661e+02
4.153311309467363266e+00,7.455695871526770269e+00,9.248195016618887543e-01,-2.921436978315639088e-01,4.359040969276539723e-01,8.512577036943550501e-01,2.668740282941395776e+02
4.098195334832923642e+00,7.651422313580220624e+00,8.718627893914018268e-01,-2.624671700353573556e-01,3.939653067686106902e-01,8.808531782972378599e-01,2.685994938363099891e+02
4.035407877753393713e+00,7.861568591067816136e+00,8.083254131129008480e-01,-2.320846075364237371e-01,3.509485745587311856e-01,9.071779499965035853e-01,2.703249593784804006e+02
3.965701315908858327e+00,8.083640504579802766e+00,7.373712762868541715e-01,-2.013321229751516561e-01,3.073321927466824421e-01,9.300603741477402320e-01,2.720504249206508121e+02
3.889769385748138575e+00,8.315204219436290956e+00,6.621233257860067445e-01,-1.705432066461974039e-01,2.635929112372124017e-01,9.494386719595550028e-01,2.737758904628212235e+02
3.808251491358261021e+00,8.553873205891775910e+00,5.856807973194774197e-01,-1.400323638365753853e-01,2.201823689750468660e-01,9.653551996394266199e-01,2.755013560049916350e+02
3.722389996720424588e+00,8.797563021962565344e+00,5.111262993827572210e-01,-1.100818236305171061e-01,1.775077770789324216e-01,9.779432402663641444e-01,2.772268215471620465e+02
3.634693661474844184e+00,9.044740646630668124e+00,4.415328053914031603e-01,-8.093232728246982366e-02,1.359183487376879884e-01,9.874088114236491132e-01,2.789522870893324580e+02
3.548302652047565342e+00,9.294137996887846143e+00,3.799906536829265047e-01,-5.277826044206473249e-02,9.569791024919160893e-02,9.940102440109191972e-01,2.806777526315028695e+02
3.466354055922157507e+00,9.544473836911890885e+00,3.296346434098689770e-01,-2.576675897817296695e-02,5.706321243738397136e-02,9.980380072512702316e-01,2.824032181736732809e+02
3.391999255421885628e+00,9.794446616437605613e+00,2.936613454158306102e-01,-0.000000000000000000e+00,2.016684970649313888e-02,9.997966284064554454e-01,2.841286837158436924e+02
3.327614265848229280e+00,1.004256272275338624e+01,2.746983089307863946e-01,0.000000000000000000e+00,1.216388999231743200e-02,9.999260171533964625e-01,2.858541492580141039e+02
3.274003929170425931e+00,1.028697228521239104e+01,2.741701260356112502e-01,0.000000000000000000e+00,4.158098703246230175e-03,9.999913550702196341e-01,2.875796148001845154e+02
3.265855511514025089e+00,1.033195828741962785e+01,2.775567587828822735e-01,0.000000000000000000e+00,-3.848985613645272263e-03,9.999925926274384480e-01,2.879043401519957115e+02
3.232935448682220603e+00,1.056428494635972370e+01,3.146502515840255976e-01,0.000000000000000000e+00,-1.185582307347407029e-02,9.999297172597934047e-01,2.896298056941661230e+02
3.211001733136110481e+00,1.078813484196725270e+01,3.723115824868510892e-01,0.000000000000000000e+00,-1.986087393382374860e-02,9.998027533901798769e-01,2.913552712363365345e+02
3.200234168857702954e+00,1.100135217900701257e+01,4.517400905958596224e-01,0.000000000000000000e+00,-2.786260007479053613e-02,9.996117623943168162e-01,2.930807367785069459e+02
3.200426079683672320e+00,1.120206129096280989e+01,5.533676502659826690e-01,-2.171148699658433795e-02,-3.009690284252082570e-02,9.993111566332505413e-01,2.948062023206773574e+02
3.206104580955115413e+00,1.130729491048159296e+01,6.224324331271248179e-01,-4.718378332373947270e-02,-3.270128774366134333e-02,9.983507982523802671e-01,2.957771818658384291e+02
3.224979964291569967e+00,1.147968854993722410e+01,7.646261517107977301e-01,-7.742052611200635204e-02,-3.576900041675213499e-02,9.963566834952864992e-01,2.975026474080088406e+02
3.251596550285408060e+00,1.163642479360573567e+01,9.246255837981306458e-01,-1.137826293621013451e-01,-3.942373461101574689e-02,9.927231650388576023e-01,2.992281129501792520e+02
3.284623002965859850e+00,1.177636620331501227e+01,1.100644565767675553e+00,-1.581365136928481741e-01,-4.383023410177829676e-02,9.864439941606695239e-01,3.009535784923496635e+02
3.322754182721639804e+00,1.189829276113999335e+01,1.290985396553172793e+00,-2.130543012818522930e-01,-4.920628012725580813e-02,9.758004953377199531e-01,3.026790440345200750e+02
3.364703163605925251e+00,1.200089491322784419e+01,1.494029462654990814e+00,-2.820421822663328748e-01,-5.582996387979043823e-02,9.577761860453755105e-01,3.044045095766904865e+02
3.409193294118362694e+00,1.208276618088137688e+01,1.708228299881574985e+00,-3.696450788239550311e-01,-6.402006373057107791e-02,9.269649114940465839e-01,3.061299751188608980e+02
3.455084036776530088e+00,1.214290552056380612e+01,1.931946631556080485e+00,-4.808495479076334012e-01,-7.402146919338446762e-02,8.736730134183368079e-01,3.078554406610313094e+02
3.501503034352875243e+00,1.218122053135544824e+01,2.163304927327657001e+00,-6.180759854399952014e-01,-8.562541784227258035e-02,7.814412095875895581e-01,3.095809062032017209e+02
3.547714826566206625e+00,1.219801453103500677e+01,2.400317434992588428e+00,-7.725585091979360053e-01,-9.729025968670629299e-02,6.274455795014861614e-01,3.113063717453721324e+02
3.592984796911124601e+00,1.219347727452630181e+01,2.641029625755278776e+00,-9.117785547897414578e-01,-1.052467336099412731e-01,3.969672430943999020e-01,3.130318372875425439e+02
3.636574155537629416e+00,1.216768602135021204e+01,2.883507401010238169e+00,-9.877601084285878574e-01,-1.052394231181578987e-01,1.151287627784736700e-01,3.147573028297129554e+02
3.677734905139088184e+00,1.212060601905116641e+01,3.125826411951424078e+00,-9.832563033311741973e-01,-9.726998728309493858e-02,-1.540960464562951271e-01,3.164827683718833669e+02
3.715831185920816626e+00,1.205242910314501081e+01,3.366102867064534099e+00,-9.271140011598115738e-01,-8.559568296140838972e-02,-3.648739616796669027e-01,3.182082339140537783e+02
3.750524830673515719e+00,1.196394926621485588e+01,3.602563865775903373e+00,-8.548436629094895434e-01,-7.398548374550061035e-02,-5.135839368384015335e-01,3.199336994562241898e+02
3.781711963526008358e+00,1.185626283080101295e+01,3.833535476364737349e+00,-7.854958121035098273e-01,-6.398005032985897012e-02,-6.155508771236023469e-01,3.216591649983946013e+02
3.809337631147259096e+00,1.173039722222387660e+01,4.057352755974802605e+00,-7.252513426486743020e-01,-5.578731762701410329e-02,-6.862202745316386965e-01,3.233846305405650128e+02
3.833334942917626442e+00,1.158727939109452088e+01,4.272311254306497830e+00,-6.746719684224138369e-01,-4.916186227892026250e-02,-7.364786801546219230e-01,3.251100960827354243e+02
3.839766456341600076e+00,1.153723305782301267e+01,4.336542301333257576e+00,-6.325460670980481703e-01,-4.378458516792826938e-02,-7.732841541764993165e-01,3.256514658846608654e+02
3.856677618719333012e+00,1.136191801620716113e+01,4.529710307703833649e+00,-5.973588148232251704e-01,-3.937720347332562820e-02,-8.010067928548496585e-01,3.273769314268312769e+02
3.869672072088422343e+00,1.117126848715014020e+01,4.709580789173017479e+00,-5.677505341521698057e-01,-3.572181927979071331e-02,-8.224252443822890335e-01,3.291023969690016884e+02
3.878622965967671199e+00,1.096585472897409730e+01,4.874206583661996106e+00,-5.426135164600778271e-01,-3.265361579707821982e-02,-8.393475520487361230e-01,3.308278625111720999e+02
3.883385192613197479e+00,1.074616610089791990e+01,5.021556345357407913e+00,-5.210756952554770338e-01,-3.004885223066457514e-02,-8.529813516681598040e-01,3.325533280533425113e+02
3.883793932494191026e+00,1.051261393493149754e+01,5.149503327284204346e+00,-5.024574301261119924e-01,-2.781425176103374808e-02,-8.641544412372345052e-01,3.342787935955129228e+02
3.880282940379948808e+00,1.026601900225963071e+01,5.256430025883723545e+00,-5.217313451058614993e-01,7.632151005505348126e-03,-8.530757022709402060e-01,3.360042591376833343e+02
3.874511432906142971e+00,1.000809452576021741e+01,5.341835637717442964e+00,-5.408943818169880124e-01,4.465494773003955697e-02,-8.399042822620002013e-01,3.377297246798537458e+02
3.868760765653151079e+00,9.740960664356396848e+00,5.405716905121195737e+00,-5.597593066810776508e-01,8.313553603781760615e-02,-8.244743787599612128e-01,3.394551902220241573e+02
3.865329357996542647e+00,9.466667838176705985e+00,5.447951709389351471e+00,-5.781181204121494943e-01,1.229080889602851556e-01,-8.066430688472158161e-01,3.411806557641945687e+02
3.866544524548038986e+00,9.187312322738726778e+00,5.468290840103250616e+00,-5.957469159892018196e-01,1.637574353396819837e-01,-7.863009057989980288e-01,3.429054765168128824e+02
3.874776451681364087e+00,8.904629297011471323e+00,5.466387027022661549e+00,-6.124128976476982400e-01,2.054197175548488352e-01,-7.633827234319859878e-01,3.446309420589832939e+02
3.892448794749865826e+00,8.620629913144579604e+00,5.441747271428373445e+00,-6.278834008821750912e-01,2.475864577616042339e-01,-7.378776191413419783e-01,3.463564076011537054e+02
3.922054169086907294e+00,8.337193667493643545e+00,5.393760626646472822e+00,-6.419364303359902379e-01,2.899123695911388077e-01,-7.098369089907464735e-01,3.480818731433241169e+02
3.966167001124818015e+00,8.056182619972814152e+00,5.321687220571278409e+00,-6.543719039721538344e-01,3.320268108567872023e-01,-6.793788399443491111e-01,3.498073386854945284e+02
4.025969612456072433e+00,7.779019343873029513e+00,5.225446237765375201e+00,-6.650225337921332747e-01,3.735482428837941793e-01,-6.466890595851463308e-01,3.515328042276649398e+02
4.099765978156888480e+00,7.506278475550276497e+00,5.106407540979054360e+00,-6.737631638689220992e-01,4.141005455361881360e-01,-6.120162883453114100e-01,3.532582697698353513e+02
4.184453667367823648e+00,7.238145009120385609e+00,4.966607167965239711e+00,-6.805174797118778152e-01,4.533296565193006278e-01,-5.756632542786510598e-01,3.549837353120057628e+02
4.276992760024237228e+00,6.974854462845760494e+00,4.807966507022102931e+00,-6.852613046218177795e-01,4.909188648679267408e-01,-5.379736169226059239e-01,3.567092008541761743e+02
4.374389293024621317e+00,6.716693747486236710e+00,4.632302907216768517e+00,-6.880221561375435835e-01,5.266012419685193180e-01,-4.993161770071731231e-01,3.584346663963465858e+02
4.473678971646664060e+00,6.464002453238824053e+00,4.441339714087805035e+00,-6.888752502313566506e-01,5.601681118820944771e-01,-4.600680124167891294e-01,3.601601319385169973e+02
4.571911058714916543e+00,6.217174560618962786e+00,4.236715786244858784e+00,-6.879365986216997575e-01,5.914730481527440409e-01,-4.205982282246418236e-01,3.618855974806874087e+02
4.666132355072189597e+00,5.976660583694609841e+00,4.019994545417309162e+00,-6.853541527511933795e-01,6.204315009565603001e-01,-3.812537710337877139e-01,3.636110630228578202e+02
4.753371185496415130e+00,5.742970157184191571e+00,3.792672609928033012e+00,-6.812980616806829648e-01,6.470166774583354652e-01,-3.423483171287991511e-01,3.653365285650282317e+02
4.830621304341010003e+00,5.516675082090548798e+00,3.556188059267848534e+00,-6.759510396704386803e-01,6.712526342616237374e-01,-3.041547187950303655e-01,3.670619941071986432e+02
4.894825634861629027e+00,5.298412847786391211e+00,3.311928375408617953e+00,-6.694996332385719784e-01,6.932056677898997821e-01,-2.669009989441341046e-01,3.687874596493690547e+02
4.912202374148862738e+00,5.223846763997405773e+00,3.222689494081096395e+00,-6.621269057880017073e-01,7.129750327387287534e-01,-2.307695025838888137e-01,3.694014859855641362e+02
4.943462438823316596e+00,5.023705521096803572e+00,2.966457620111448534e+00,-9.087400913516551215e-01,3.978324858699797129e-01,-1.261774922745642624e-01,3.711269515277345477e+02
4.954076514403540799e+00,4.833730431187002630e+00,2.705857155989628282e+00,-9.998929495611769136e-01,1.463179475832167287e-02,0.000000000000000000e+00,3.728524170699049591e+02
4.941856726650866172e+00,4.654376837587379079e+00,2.442428114482698476e+00,-9.947005070421864881e-01,-5.264496055390212315e-02,8.831426508948013454e-02,3.745778826120753706e+02
4.906925086044847895e+00,4.485230434705116842e+00,2.178266325603234854e+00,-9.714370591215573114e-01,-1.345295913070723992e-01,1.954784623123783371e-01,3.763033481542457821e+02
4.850489721545788058e+00,4.325458046524438771e+00,1.915749291550341571e+00,-9.190421167600468788e-01,-2.300784855555446928e-01,3.200398070641827797e-01,3.780288136964161936e+02
4.773632153228892783e+00,4.174269266954427238e+00,1.657263597090245177e+00,-8.266782635130240919e-01,-3.330173820734272372e-01,4.535443438871792354e-01,3.797542792385866051e+02
4.677313661962383406e+00,4.030913070576828794e+00,1.405218088672081533e+00,-6.916549452597355874e-01,-4.309089986633269920e-01,5.795954378432606191e-01,3.814797447807570165e+02
4.562833250783026706e+00,3.894673370081673358e+00,1.162276907354529376e+00,-5.264042733496563375e-01,-5.099686224473980456e-01,6.803165036351267458e-01,3.832052103229274280e+02
4.432287436592921459e+00,3.764859817911049955e+00,9.309225671639214106e-01,-3.540131837095928935e-01,-5.630496211830136044e-01,7.467595261163145759e-01,3.849306758650978395e+02
4.288129827991940424e+00,3.640798672339153441e+00,7.125785687183264772e-01,-1.949251602766754465e-01,-5.921274888957785976e-01,7.819138180036798724e-01,3.866561414072682510e+02
4.132732643079132906e+00,3.521828548229617883e+00,5.080688934953909719e-01,-5.918974206296516438e-02,-6.039407806365580944e-01,7.948283512297635856e-01,3.883816069494386625e+02
3.968400037874755260e+00,3.407297349626882799e+00,3.182939183408626249e-01,5.194392941761561550e-02,-6.052149264965294151e-01,7.943656091136236386e-01,3.901070724916090739e+02
3.797381029590917834e+00,3.296559147408813395e+00,1.442353875027670429e-01,4.940232217321879893e-02,-5.662106588455333434e-01,8.227787675758293506e-01,3.918325380337794854e+02
3.621882086539609524e+00,3.188970987756216235e+00,-1.303816601187385467e-02,4.664704807099736422e-02,-5.244002062697528110e-01,8.501931995555496169e-01,3.935580035759498969e+02
3.520017823343020158e+00,3.128769535008567360e+00,-9.289630292797604327e-02,4.368219829808998866e-02,-4.798915036483994423e-01,8.762396990994669732e-01,3.945460524459348335e+02
3.341557687105838337e+00,3.025658732659157302e+00,-2.134563054156995432e-01,4.051747571630155004e-02,-4.328703944910649581e-01,9.005451436406332055e-01,3.962715179881052450e+02
3.164427132230778650e+00,2.924182212274081483e+00,-3.137960786656436851e-01,3.716854466043943706e-02,-3.836030363901091755e-01,9.227498088648479202e-01,3.979969835302756564e+02
2.990780952707827733e+00,2.823683570923878339e+00,-3.924399706531488397e-01,3.365699213803537843e-02,-3.324327341920311207e-01,9.425262246313523828e-01,3.997224490724460679e+02
2.822788015331274103e+00,2.723494279905786630e+00,-4.477925211556788021e-01,3.000984074869839785e-02,-2.797706353969267590e-01,9.595977287529591226e-01,4.014479146146164794e+02
2.662643251085492491e+00,2.622929808930106965e+00,-4.781296513581436702e-01,2.625861068351665814e-02,-2.260805433737922976e-01,9.737546268299741570e-01,4.031733801567868909e+02
2.512903458796219347e+00,2.519633900548464478e+00,-4.806334817487460387e-01,2.243799483105967871e-02,-1.718590057506504398e-01,9.848659901379269721e-01,4.048988456989573024e+02
2.375660541534142300e+00,2.410158927227793235e+00,-4.526273256411831314e-01,1.858427242890466763e-02,-1.176126095430636287e-01,9.928856424053875696e-01,4.066243112411277139e+02
2.251080037094397746e+00,2.293854193667283603e+00,-3.947227853017134525e-01,1.473362764077061626e-02,-6.383486436315319312e-02,9.978517075739665732e-01,4.083497767832981253e+02
2.138252200811551429e+00,2.172281473287287046e+00,-3.095725750026009915e-01,1.092054967464178329e-02,-1.098506534714096920e-02,9.998800277703934203e-01,4.100752423254685368e+02
2.036345484775854420e+00,2.046980341415034044e+00,-1.996789539740339015e-01,7.176469012135270643e-03,4.052889285508564504e-02,9.991525945202057724e-01,4.118007078676389483e+02
1.956332886817686134e+00,1.935652719117340048e+00,-8.420018704219826844e-02,3.528737341999299646e-03,9.036250445484557414e-02,9.959026889216733291e-01,4.133066251526077508e+02
1.874266804540962950e+00,1.807296457624927077e+00,6.839532287489982765e-02,-0.000000000000000000e+00,1.382410334876689184e-01,9.903986150334931349e-01,4.150320906947781623e+02
1.801193959043934090e+00,1.679653465807582569e+00,2.392009985290182439e-01,3.893136123461823775e-05,1.639291953158772686e-01,9.864721067559072409e-01,4.167575562369485738e+02
1.736553227350933648e+00,1.554250887165046224e+00,4.261875952854297656e-01,8.514555065812476928e-05,1.943014749685907372e-01,9.809418584071460945e-01,4.184830217791189853e+02
1.679843026830611485e+00,1.432632618587250439e+00,6.274152221887671077e-01,1.407186450468260290e-04,2.306493516012718403e-01,9.730369246869184918e-01,4.202084873212893967e+02
1.630618684411141217e+00,1.316367413242385487e+00,8.410226295641596295e-01,2.084936862960796696e-04,2.747167952479028230e-01,9.615251629256015287e-01,4.219339528634598082e+02
1.588490189803867914e+00,1.207057141293303104e+00,1.065216930888963631e+00,2.923802536772679016e-04,3.288556595304292784e-01,9.443801510560213552e-01,4.236594184056302197e+02
1.553120321648855384e+00,1.106345251255992146e+00,1.298263702175520784e+00,3.976908056146994308e-04,3.961681375267366856e-01,9.181778959714831378e-01,4.253848839478006312e+02
1.524223137929445748e+00,1.015925476006157568e+00,1.538477404191753939e+00,5.312792503013743063e-04,4.804501054263259352e-01,8.770219004894863613e-01,4.271103494899710427e+02
1.501562824398557039e+00,9.375508288585171490e-01,1.784212074629306644e+00,7.006122757006320086e-04,5.853220527600606626e-01,8.108005942864052740e-01,4.288358150321414541e+02
1.484952897128275717e+00,8.730429367939236407e-01,2.033852238817585700e+00,9.092676405286231498e-04,7.109270400538132417e-01,7.032651825255404887e-01,4.305612805743118656e+02
1.474255757669861833e+00,8.243017597858116607e-01,2.285803988793132735e+00,1.144343029886099160e-03,8.456775657889086251e-01,5.336929315630630777e-01,4.322867461164822771e+02
1.469380394539852031e+00,7.926758795610602260e-01,2.538340939141560781e+00,1.358545031655703514e-03,9.563331120743526759e-01,2.922757826190539032e-01,4.340122116586526886e+02
1.470272661441761386e+00,7.781169285602866914e-01,2.789440347246015861e+00,1.482049131919144702e-03,9.999622693826949460e-01,8.559400760636475675e-03,4.357376772008231001e+02
1.476583927711369704e+00,7.795674250749067280e-01,3.036946457883177075e+00,1.487645955595663693e-03,9.669530312765055591e-01,-2.549502347806096858e-01,4.374631427429935115e+02
1.487345075593600852e+00,7.957722293846116735e-01,3.278751321396935481e+00,1.414416350391869319e-03,8.893762747900686438e-01,-4.571737539130260042e-01,4.391886082851639230e+02
1.501281384682713105e+00,8.255281511463885558e-01,3.512753881100595610e+00,1.313648037144278915e-03,8.018835513667113002e-01,-5.974789070555927006e-01,4.409140738273343345e+02
1.517126431688603949e+00,8.677175798239646909e-01,3.736809994678564451e+00,1.214352590154081342e-03,7.217531330096048636e-01,-6.921495072154617567e-01,4.426395393695047460e+02
1.533615690843595170e+00,9.213022360240031849e-01,3.948720593870983286e+00,1.126790631508996048e-03,6.537305168229857744e-01,-7.567265964119567201e-01,4.443650049116751575e+02
1.549480096196292456e+00,9.853174154875850022e-01,4.146219540854003682e+00,1.052568926643231801e-03,5.974005086346123594e-01,-8.019423447990265963e-01,4.460904704538455690e+02
1.563439533738787413e+00,1.058866694205929271e+00,4.326961114249776585e+00,9.903450214691687879e-04,5.509142128511782532e-01,-8.345612915150719680e-01,4.478159359960159804e+02
1.574196230669595131e+00,1.141117065954385668e+00,4.488507055662928735e+00,9.381243103650218013e-04,5.123415036500599262e-01,-8.587812897125635114e-01,4.495414015381863919e+02
1.580428008298297105e+00,1.231294486210833927e+00,4.628313105214062695e+00,8.940282907307008520e-04,4.800480271188569126e-01,-8.772417525247578896e-01,4.512668670803568034e+02
1.580781364135247946e+00,1.328679798954350177e+00,4.743714951716658135e+00,8.564899549717587806e-04,4.527405860785725378e-01,-8.916418721337552311e-01,4.529923326225272149e+02
1.580110208223637125e+00,1.339270413556953532e+00,4.753040891045375638e+00,8.242578295552722457e-04,4.294190013449196153e-01,-9.031050004750070803e-01,4.531684601903048133e+02
1.565824936922834087e+00,1.449028168476267586e+00,4.818726884814883427e+00,7.647220470374976094e-04,3.280798764832130732e-01,-9.446496757247897502e-01,4.548939257324752248e+02
1.542668072896553610e+00,1.564649262937288565e+00,4.853790323000716889e+00,6.941666141820093628e-04,2.201075042289444283e-01,-9.754753737100783084e-01,4.566193912746456363e+02
1.509468983521259799e+00,1.686572373427737359e+00,4.856121164160497550e+00,6.148589468779332937e-04,1.093599588812912554e-01,-9.940020228057676599e-01,4.583448568168160477e+02
1.470683293137613479e+00,1.802454298689709411e+00,4.829520090402058763e+00,5.300273656876602468e-04,0.000000000000000000e+00,-9.999998595354860909e-01,4.598871246437954028e+02
1.418063470749622468e+00,1.940256486827458104e+00,4.770666594253151871e+00,5.157529946447768354e-02,3.832465841036795939e-02,-9.979334692467619616e-01,4.616125901859658143e+02
1.357595940682432945e+00,2.085683094255903480e+00,4.686406862141518914e+00,1.035067165665968930e-01,7.731630832128165431e-02,-9.916191547631432179e-01,4.633380557281362258e+02
1.290615036291592688e+00,2.238224489661328143e+00,4.580398420701409457e+00,1.556710866116242376e-01,1.164846010840692725e-01,-9.809168417880496094e-01,4.650635212703066372e+02
1.218414706961062910e+00,2.397399888140994584e+00,4.456178696566526654e+00,2.073801607092988497e-01,1.553128018906042296e-01,-9.658526815788602837e-01,4.667889868124770487e+02
1.142255964618852149e+00,2.562754978120883376e+00,4.317184550622550354e+00,2.579545672148752522e-01,1.932907724507861302e-01,-9.466245921897258331e-01,4.685144523546474602e+02
1.063374127518631695e+00,2.733859635753878248e+00,4.166771256920632993e+00,3.067677360888299010e-01,2.299479536728253060e-01,-9.235894622052670533e-01,4.702399178968178717e+02
9.829859023819378372e-01,2.910305715580749020e+00,4.008231031056373794e+00,3.532833449224508371e-01,2.648814910786053689e-01,-8.972339014350602104e-01,4.719653834389882832e+02
9.022963450028461674e-01,3.091704906330535074e+00,3.844811210330878470e+00,5.897101002084704779e-01,1.267470618845288333e-01,-7.976071589546792628e-01,4.736908489811586946e+02
8.225057386487132360e-01,3.277686640778739502e+00,3.679732186088712886e+00,8.178711887174369144e-01,-6.501154241105427944e-02,-5.717169037375600116e-01,4.754163145233291061e+02
7.448164290416521283e-01,3.467896048563564815e+00,3.516205187256288944e+00,9.316486946259164847e-01,-2.476779363932229139e-01,-2.658690460091592267e-01,4.771417800654995176e+02
6.704396543735897662e-01,3.661991940780038313e+00,3.357450013278158618e+00,9.302570451933813711e-01,-3.669084761464080913e-01,0.000000000000000000e+00,4.788672456076699291e+02
6.006024086848124055e-01,3.859644815044918520e+00,3.206712814377032039e+00,9.292135679223713085e-01,-3.680509090096906188e-01,-3.317640074084175078e-02,4.805927111498403406e+02
5.365543769864321577e-01,4.060534869532316904e+00,3.067284017345988101e+00,9.270536775988064138e-01,-3.688058652249533442e-01,-6.748120202102042553e-02,4.823181766920107520e+02
4.795749808495131661e-01,4.264350014205237294e+00,2.942516495869871740e+00,9.236706183925659230e-01,-3.691279922202143071e-01,-1.028450974901986836e-01,4.840436422341811635e+02
4.309805737634462841e-01,4.470783867141989276e+00,2.835844085701709538e+00,9.189608891066993746e-01,-3.689722251219418325e-01,-1.391775175119451258e-01,4.857691077763515750e+02
3.921318261441543718e-01,4.679533723457026007e+00,2.750800546986180706e+00,9.128274395518881645e-01,-3.682950033952685498e-01,-1.763656884862334906e-01,4.874945733185219865e+02
3.633020786685975945e-01,4.890301553155192771e+00,2.691592791705545995e+00,9.051832000218379415e-01,-3.670556524469201776e-01,-2.142744091229540904e-01,4.892200388606923980e+02
3.431799013454002178e-01,5.102639520969220577e+00,2.661477779632471563e+00,8.959547995592758163e-01,-3.652178808104334928e-01,-2.527467045938164847e-01,4.909455044028628095e+02
3.306396265120358224e-01,5.315787795254057535e+00,2.660026741782342885e+00,8.850862784452975252e-01,-3.627513220305745301e-01,-2.916054836125750449e-01,4.926709699450332209e+02
3.252315394484688316e-01,5.528830501532318920e+00,2.684769147882683171e+00,8.725425590598561154e-01,-3.596330313280373114e-01,-3.306562647328557536e-01,4.943964354872036324e+02
3.252420501326255819e-01,5.537792438322123978e+00,2.686555986684409092e+00,8.583124153657711863e-01,-3.558488339815896739e-01,-3.696909587519267570e-01,4.944692307941007243e+02
3.309446261276369761e-01,5.749094587350090713e+00,2.745354358795857319e+00,8.424106824568557972e-01,-3.513944184544512406e-01,-4.084926006204180893e-01,4.961946963362711358e+02
3.429793326971935508e-01,5.958356069071119698e+00,2.825779016480661987e+00,8.248794789543690831e-01,-3.462760751157203942e-01,-4.468408273674424058e-01,4.979201618784415473e+02
3.610103358064927770e-01,6.164649103623626836e+00,2.925811598587750861e+00,8.057882772073322597e-01,-3.405110018643153214e-01,-4.845178117722810929e-01,4.996456274206119588e+02
3.847276685008717001e-01,6.367032045652933014e+00,3.043542022106780820e+00,7.852327444497920750e-01,-3.341271298133868251e-01,-5.213142988318232307e-01,5.013710929627823703e+02
4.138453663378133252e-01,6.564543952121623782e+00,3.177157934370628212e+00,7.633323821449993218e-01,-3.271624619739618711e-01,-5.570353649850039446e-01,5.030965585049527817e+02
4.480996923480673466e-01,6.756199057696131050e+00,3.324934704941662211e+00,7.402270967376211042e-01,-3.196639603716801559e-01,-5.915055347964933707e-01,5.048220240471231932e+02
4.872474407312198941e-01,6.940981126331159601e+00,3.485225901915137925e+00,7.160729278290667299e-01,-3.116860562434756732e-01,-6.245729455985882250e-01,5.065474895892936047e+02
5.310643086856694506e-01,7.117837647091020514e+00,3.656454200048965930e+00,6.910372262687891620e-01,-3.032888883480798214e-01,-6.561123395542294290e-01,5.082729551314640162e+02
5.793433258958106125e-01,7.285673841467525058e+00,3.837102670512427594e+00,6.652936064095004154e-01,-2.945363920434603822e-01,-6.860267713673144918e-01,5.099984206736344277e+02
6.318933312446619599e-01,7.443346448481156230e+00,4.025706404153847728e+00,6.390169916429416785e-01,-2.854943650360540208e-01,-7.142480324959005200e-01,5.117238862158048391e+02
6.885374863057663886e-01,7.589657252706343726e+00,4.220844422029536247e+00,6.123790343625818977e-01,-2.762286254769200089e-01,-7.407358940542054793e-01,5.134493517579752506e+02
7.491118150852003055e-01,7.723346319020210515e+00,4.421131828522346652e+00,5.855441294962392407e-01,-2.668033572996632574e-01,-7.654763490442532126e-01,5.151748173001457189e+02
8.134637593314063553e-01,7.843084896330164035e+00,4.625212163717944414e+00,5.586661659613392228e-01,-2.572797105025108610e-01,-7.884790837896725746e-01,5.169002828423161873e+02
8.814507385041795429e-01,7.947467950784020907e+00,4.831749912807501879e+00,5.318860840485246655e-01,-2.477146948602768906e-01,-8.097744275696816540e-01,5.186257483844866556e+02
9.529387031916680684e-01,8.035006286998982006e+00,5.039423131152861224e+00,5.053302380834621133e-01,-2.381603781288527677e-01,-8.294100221048894550e-01,5.203512139266571239e+02
1.027800670382106984e+00,8.104118213650156832e+00,5.246916144288557682e+00,4.791095088962391002e-01,-2.286633769037966224e-01,-8.474474252413284336e-01,5.220766794688275922e+02
1.106183086234239887e+00,8.153244030521515029e+00,5.452835134832104025e+00,4.411514944935572835e-01,-2.105472518995652464e-01,-8.723847853004097486e-01,5.238021450109980606e+02
1.188774970178471557e+00,8.180957739949581864e+00,5.655623297876014810e+00,4.012093712872408791e-01,-1.914841763323428814e-01,-8.957482071461941864e-01,5.255276105531685289e+02
1.276544939225690456e+00,8.185831379260369189e+00,5.853629391768711443e+00,3.594906252330321017e-01,-1.715731764965761075e-01,-9.172399552333284634e-01,5.272530760953389972e+02
1.315214758280522922e+00,8.177951314437892805e+00,5.932739697028466708e+00,3.162565151849095479e-01,-1.509389427411047535e-01,-9.365891586855437101e-01,5.279648397486990916e+02
1.415563432696550716e+00,8.133678332851992820e+00,6.116956266272464582e+00,2.718154745722914378e-01,-1.297286803044207237e-01,-9.535653188374215716e-01,5.296903052908695599e+02
1.523344569704781160e+00,8.062465684166431501e+00,6.291996042516929677e+00,2.265128962573331184e-01,-1.081072339594880555e-01,-9.679900483965437896e-01,5.314157708330400283e+02
1.607606123815200405e+00,7.990807335469399142e+00,6.410006951721777924e+00,1.807180105348835664e-01,-8.625082531015229592e-02,-9.797457812114483966e-01,5.326653420764455404e+02
1.733126932656543051e+00,7.865447887513146163e+00,6.555196614047838821e+00,1.348089867473313830e-01,-6.433994227674558197e-02,-9.887805160499386625e-01,5.343908076186160088e+02
1.867127268643478999e+00,7.716090685211505651e+00,6.677394183381148984e+00,8.915764014594930453e-02,-4.255204017869219230e-02,-9.951081544637428999e-01,5.361162731607864771e+02
2.008193065325743376e+00,7.545168440553732481e+00,6.775976878526316582e+00,4.411515074652723467e-02,-2.105472580905424704e-02,-9.988045614612084400e-01,5.378417387029569454e+02
2.154846250623581483e+00,7.354988196853795124e+00,6.852768778620994539e+00,-0.000000000000000000e+00,-0.000000000000000000e+00,-1.000000000000000000e+00,5.395672042451274137e+02
2.305658296783656969e+00,7.147761838835077874e+00,6.909473630368793806e+00,-3.587833199624962735e-04,0.000000000000000000e+00,-9.999999356372626380e-01,5.412926697872978821e+02
2.459241523495803605e+00,6.925618011250907813e+00,6.947684256401954528e+00,-7.175675161962130622e-04,0.000000000000000000e+00,-9.999997425483967417e-01,5.430181353294683504e+02
2.614240724087336432e+00,6.690613644387301662e+00,6.968891351106086596e+00,-1.076352450149169063e-03,0.000000000000000000e+00,-9.999994207325336726e-01,5.447436008716388187e+02
2.769325065118366069e+00,6.444745148042550831e+00,6.974491712475940908e+00,-1.435137983267567151e-03,0.000000000000000000e+00,-9.999989701889542282e-01,5.464690664138092870e+02
2.923180211720829202e+00,6.189959334133206426e+00,6.965795955459407551e+00,-1.793923976996060878e-03,0.000000000000000000e+00,-9.999983909170877538e-01,5.481945319559797554e+02
3.074500632766617336e+00,5.928164126950249191e+00,6.944035749386425316e+00,-2.152710292778022266e-03,0.000000000000000000e+00,-9.999976829165131420e-01,5.499199974981502237e+02
3.221982041430187849e+00,5.661239119272813092e+00,6.910370619448941376e+00,-2.511496792055811344e-03,0.000000000000000000e+00,-9.999968461869584990e-01,5.516454630403206920e+02
3.364313927937405690e+00,5.391046032045059277e+00,6.865894349789647855e+00,-2.870283336271037874e-03,0.000000000000000000e+00,-9.999958807283004791e-01,5.533709285824911603e+02
3.500172142273755505e+00,5.119439135134612684e+00,6.811641023558299146e+00,-3.229069786864837820e-03,0.000000000000000000e+00,-9.999947865405657277e-01,5.550963941246616287e+02
3.628211485370560041e+00,4.848275686814007557e+00,6.748590733289256960e+00,-3.587856005278132043e-03,0.000000000000000000e+00,-9.999935636239292158e-01,5.568218596668320970e+02
3.747058267804642462e+00,4.579426450044656427e+00,6.677674993133918768e+00,-3.946641852951900814e-03,0.000000000000000000e+00,-9.999922119787156838e-01,5.585473252090025653e+02
3.855302795340244781e+00,4.314786344400855178e+00,6.599781882835548785e+00,-4.305427191327445766e-03,0.000000000000000000e+00,-9.999907316053984196e-01,5.602727907511730336e+02
3.951491740715169065e+00,4.056285293553744786e+00,6.515760951852392679e+00,-4.664211881846664839e-03,0.000000000000000000e+00,-9.999891225046007026e-01,5.619982562933435020e+02
4.034120360929636107e+00,3.805899329650616725e+00,6.426427910710446056e+00,-5.022995785952305559e-03,0.000000000000000000e+00,-9.999873846770940267e-01,5.637237218355139703e+02
4.101624518939329000e+00,3.565662017683929985e+00,6.332569135492233769e+00,-5.381778765088250822e-03,0.000000000000000000e+00,-9.999855181237994328e-01,5.654491873776844386e+02
4.152372468082711876e+00,3.337676265057535119e+00,6.234946010335968403e+00,-5.740560680699777381e-03,0.000000000000000000e+00,-9.999835228457872871e-01,5.671746529198549069e+02
4.184656356786835119e+00,3.124126584037765220e+00,6.134299131925356363e+00,-6.099341394233817777e-03,0.000000000000000000e+00,-9.999813988442767254e-01,5.689001184620253753e+02
4.196683410095694455e+00,2.927291877640668893e+00,6.031352399187992930e+00,-6.458120767139237904e-03,0.000000000000000000e+00,-9.999791461206363197e-01,5.706255840041958436e+02
4.196674432937636645e+00,2.924987258141253044e+00,6.030068975732828740e+00,-6.816898660867098947e-03,0.000000000000000000e+00,-9.999767646763836337e-01,5.706468845392142839e+02
4.182198392968584422e+00,2.749687288127076190e+00,5.925446959447169704e+00,-7.175674936870926265e-03,0.000000000000000000e+00,-9.999742545131851124e-01,5.723723500813847522e+02
4.144736515852929237e+00,2.595358368534158799e+00,5.819631439446392385e+00,-7.534449456606982613e-03,0.000000000000000000e+00,-9.999716156328567473e-01,5.740978156235552206e+02
4.125611046737628129e+00,2.552393217684436610e+00,5.785013184765399608e+00,-7.893222081534517071e-03,-0.000000000000000000e+00,-9.999688480373634114e-01,5.746554171717834834e+02
4.046418456102587768e+00,2.440851352628678139e+00,5.676246853223831046e+00,1.064529351364108455e-05,0.000000000000000000e+00,-9.999999999433388798e-01,5.763808827139539517e+02
3.960979990231964454e+00,2.361642473863204028e+00,5.578821878328374950e+00,5.077942819261210307e-03,0.000000000000000000e+00,-9.999871071652496335e-01,5.778973765012922286e+02
3.848666411346072458e+00,2.292312758401258588e+00,5.465400253858404334e+00,1.014510983321466504e-02,0.000000000000000000e+00,-9.999485370490184266e-01,5.796228420434626969e+02
3.724054454729762931e+00,2.242880030011551007e+00,5.349207338631398301e+00,2.859046674560877105e-02,2.535613634465350152e-02,-9.992695590084487156e-01,5.813483075856331652e+02
3.589261115268758573e+00,2.212312746436601696e+00,5.230624900514334819e+00,4.723750816854135892e-02,5.100349658517703416e-02,-9.975807040826886185e-01,5.830737731278036335e+02
3.445981040049058475e+00,2.199593288639049682e+00,5.110334978960421104e+00,6.603224706182866943e-02,7.686830881325583398e-02,-9.948522530748752368e-01,5.847992386699741019e+02
3.295853591044330511e+00,2.203789629320366039e+00,4.989010184347260513e+00,8.491757548568787395e-02,1.028723909916430396e-01,-9.910632051212955318e-01,5.865247042121445702e+02
3.140472670157290924e+00,2.224050564761496318e+00,4.867317412244392294e+00,1.038340517251197109e-01,1.289342220063336986e-01,-9.862020361457213280e-01,5.882501697543150385e+02
2.981396253351877412e+00,2.259601317083021588e+00,4.745921526123204615e+00,1.227207834064554665e-01,1.549701476500119079e-01,-9.802672404285676100e-01,5.899756352964855068e+02
2.820155690003812499e+00,2.309739484629864670e+00,4.625489028845485073e+00,1.415163779511267872e-01,1.808956826050210076e-01,-9.732676234142679794e-01,5.917011008386559752e+02
2.658264822112702763e+00,2.373831319669830631e+00,4.506691743205576195e+00,1.601599268888644068e-01,2.066268627063546637e-01,-9.652223253878262632e-01,5.934265663808264435e+02
2.497228976850723647e+00,2.451308313976202413e+00,4.390210521851779291e+00,1.785919877739565453e-01,2.320815977596207835e-01,-9.561605690909286137e-01,5.951520319229969118e+02
2.338553885062309767e+00,2.541664074144750263e+00,4.276739007073717680e+00,1.967555270317479788e-01,2.571809744174259338e-01,-9.461211386393195699e-01,5.968774974651673801e+02
2.212999948848337173e+00,2.624935193951544399e+00,4.187758039888977990e+00,2.145967890889478036e-01,2.818504612078872040e-01,-9.351516110394157977e-01,5.982762623225931975e+02
2.063373898762566938e+00,2.739622005485746747e+00,4.082410295110194376e+00,2.320660614383679154e-01,3.060209735409380460e-01,-9.233073739993308271e-01,6.000017278647636658e+02
