4.447972772593701940e+00,8.136678046331631720e+00,5.360666639278653278e+00,-3.057921530160073176e-01,-1.692781430157134712e-02,-9.519477970229283104e-01,1.777995931323269474e+01
4.449286645458845335e+00,8.609182113928529390e+00,5.364685235443586109e+00,-3.356974732872129996e-01,-1.858322990501562119e-02,-9.417865310116079192e-01,1.955795524455596279e+01
4.443138546975033520e+00,9.051198749958144774e+00,5.379556171870010672e+00,-3.651201470872501020e-01,-2.021192788880329938e-02,-9.307409715715767584e-01,2.133595117587923085e+01
4.428270605836807761e+00,9.459536569269550554e+00,5.406580057756970703e+00,-3.939806888162625254e-01,-2.180950832285808230e-02,-9.188599252261350214e-01,2.311394710720249890e+01
4.403335258602106173e+00,9.830886528363109278e+00,5.447145154405751200e+00,-4.222061785831958125e-01,-2.337193472838286837e-02,-9.061984856714486725e-01,2.489194303852576695e+01
4.366885569660945876e+00,1.016181013917270981e+01,5.502737387944939051e+00,-4.497310854532487467e-01,-2.489557964844836199e-02,-8.928169806242544082e-01,2.666993896984903500e+01
4.317364805623462587e+00,1.044872726460758194e+01,5.574951066455507309e+00,-4.764978801514855311e-01,-2.637725856379354028e-02,-8.787798418499364050e-01,2.844793490117230306e+01
4.253095194932734024e+00,1.068790345529120955e+01,5.665500378792057923e+00,-5.024574301261119924e-01,-2.781425176103374808e-02,-8.641544412372345052e-01,3.022593083249557111e+01
4.173453768614036719e+00,1.087708374372848574e+01,5.774964807192158212e+00,-4.792696875424449776e-01,-2.653066101021077372e-02,-8.772666017974971586e-01,3.200392676381883916e+01
4.080078765270362950e+00,1.101712130829711889e+01,5.901526355902424470e+00,-4.554318762094195505e-01,-2.521108477131949605e-02,-8.899135954332989540e-01,3.378192269514210722e+01
3.975725974241827831e+00,1.111031831529761327e+01,6.042223389866137495e+00,-4.309782248261962434e-01,-2.385741782309900444e-02,-9.020468908767851346e-01,3.555991862646537527e+01
3.863107709218829733e+00,1.115878263474472121e+01,6.194196225001344480e+00,-4.059483831268237419e-01,-2.247185503345047394e-02,-9.136196834394895161e-01,3.733791455778864332e+01
3.744907459696259266e+00,1.116443599752470739e+01,6.354666502949843476e+00,-3.803872282568157015e-01,-2.105688064113482236e-02,-9.245875644614534039e-01,3.911591048911191137e+01
3.623794449889175873e+00,1.112902135532259429e+01,6.520917152381622728e+00,-3.543445592083452333e-01,-1.961525134079463231e-02,-9.349091802278340912e-01,4.089390642043517943e+01
3.502438186372190732e+00,1.105410947130054744e+01,6.690272792327248474e+00,-3.278746807749660097e-01,-1.814997325217092977e-02,-9.445468607632231395e-01,4.267190235175844748e+01
3.472856979968543811e+00,1.103072723299919566e+01,6.731975003351932330e+00,-3.010358828652987540e-01,-1.666427309676547092e-02,-9.534671988221024019e-01,4.310743971148026787e+01
3.354482902125045296e+00,1.091558735891019616e+01,6.901340549767918553e+00,-2.738898254006806310e-01,-1.516156414796782093e-02,-9.616415603095427311e-01,4.488543564280353593e+01
3.242098254814837155e+00,1.076397496269010468e+01,7.067629502324956903e+00,-2.465008431313003290e-01,-1.364540774815534672e-02,-9.690465092981578321e-01,4.666343157412680398e+01
3.138474380764390670e+00,1.057696417261552568e+01,7.228166755878817185e+00,-2.189351882584885389e-01,-1.211947138296374550e-02,-9.756641336831121114e-01,4.844142750545007203e+01
3.046447725531369333e+00,1.035547730745806660e+01,7.380235721474500465e+00,-1.912602314971359740e-01,-1.058748445495119248e-02,-9.814822611848764700e-01,5.021942343677334009e+01
2.968935694554596161e+00,1.010028784707882998e+01,7.521058733157341081e+00,-1.635436439566174960e-01,-9.053192995443427177e-03,-9.864945596494582025e-01,5.199741936809660814e+01
2.908953039074813507e+00,9.812022735612803359e+00,7.647777014271387230e+00,-1.358525828416010939e-01,-7.520314587834003861e-03,-9.907005201390407523e-01,5.377541529941987619e+01
2.869628864769636412e+00,9.491164022010011081e+00,7.757430058754412272e+00,-1.082529034438557969e-01,-5.992494746260506634e-03,-9.941053258597356557e-01,5.555341123074314424e+01
2.854224360825980078e+00,9.138049839567511157e+00,7.846934278718508793e+00,-8.080841827066746752e-02,-4.473265903595317200e-03,-9.967196142490367672e-01,5.733140716206641230e+01
2.866151351621913257e+00,8.752874722932132201e+00,7.913060764312032980e+00,-5.358022157491022786e-02,-2.966010019838842635e-03,-9.985591432862380712e-01,5.910940309338968035e+01
2.908991778234237824e+00,8.335689257860307677e+00,7.952411995457850935e+00,-2.662609422211126287e-02,-1.473925637682237154e-03,-9.996443760906624787e-01,6.088739902471294840e+01
2.986518222658937738e+00,7.886399055774480082e+00,7.961397337503959726e+00,-0.000000000000000000e+00,-0.000000000000000000e+00,-1.000000000000000000e+00,6.266539495603621646e+01
3.021638684314650547e+00,7.719266992288345008e+00,7.957991651011142586e+00,0.000000000000000000e+00,1.976075337144798504e-03,-9.999980475612250119e-01,6.330097018092531158e+01
3.138723340047471666e+00,7.236148794839651011e+00,7.930395583089492106e+00,0.000000000000000000e+00,3.952220125148945239e-03,-9.999921899475426867e-01,6.507896611224857963e+01
3.285399938964078448e+00,6.729056518616897797e+00,7.873010922416604274e+00,0.000000000000000000e+00,5.928411214970589690e-03,-9.999824268158247209e-01,6.685696204357185479e+01
3.455342226509267700e+00,6.203772116381647272e+00,7.788808578820077599e+00,0.000000000000000000e+00,7.904625453770682680e-03,-9.999687579601852505e-01,6.863495797489512995e+01
3.642431216050795673e+00,5.666051207103365073e+00,7.680566041542501665e+00,0.000000000000000000e+00,9.880839686268990188e-03,-9.999511833120126036e-01,7.041295390621840511e+01
3.840717232630155298e+00,5.121643415644941300e+00,7.550887411666969307e+00,0.000000000000000000e+00,1.185703075610047841e-02,-9.999297029399860648e-01,7.219094983754168027e+01
4.044383227223291577e+00,4.576312941406667001e+00,7.402222183994736859e+00,0.000000000000000000e+00,1.383317550717193950e-02,-9.999043170500804267e-01,7.396894576886495543e+01
4.247709137919787103e+00,4.035859425342105844e+00,7.236882913837951570e+00,0.000000000000000000e+00,1.580925078501860953e-02,-9.998750259855561096e-01,7.574694170018823058e+01
4.445037081671183721e+00,3.506139187361496212e+00,7.057061896147272861e+00,0.000000000000000000e+00,1.778523343816067193e-02,-9.998418302269365121e-01,7.752493763151150574e+01
4.630737166195091348e+00,2.993086908967164561e+00,6.864846977271469086e+00,0.000000000000000000e+00,1.976110031945937234e-02,-9.998047303919722628e-01,7.930293356283478090e+01
4.799173716291577740e+00,2.502737839038910117e+00,6.662236613389946882e+00,0.000000000000000000e+00,2.173682828747261139e-02,-9.997637272355908156e-01,8.108092949415805606e+01
4.944671712262561414e+00,2.041250604026138227e+00,6.451154284225921742e+00,0.000000000000000000e+00,2.371239420780988857e-02,-9.997188216498343882e-01,8.285892542548133122e+01
5.063612090622089390e+00,1.612990697000824092e+00,6.233206620425417732e+00,3.110032720675477836e-07,4.664619502476338025e-02,-9.989114738001636518e-01,8.463692135680460638e+01
5.156511353709355205e+00,1.218588348780128117e+00,6.009439245686826858e+00,6.649241098974618782e-07,7.272959069648084196e-02,-9.973516965627924336e-01,8.641491728812788153e+01
5.225854585339337000e+00,8.568531511168860915e-01,5.780600063816387468e+00,1.070403671162502244e-06,1.025928273805181978e-01,-9.947234348143836336e-01,8.819291321945115669e+01
5.273968916574312438e+00,5.267011178810958594e-01,5.547400398502182917e+00,1.538216009439194730e-06,1.370201881050465142e-01,-9.905682551188946805e-01,8.997090915077443185e+01
5.303039048118509236e+00,2.271516274068068608e-01,5.310520123684609572e+00,2.081771334178818086e-06,1.769854300368881583e-01,-9.842134715346686491e-01,9.174890508209770701e+01
5.315121861273416570e+00,-4.267534861535024482e-02,5.070612567097950496e+00,2.717607927275342980e-06,2.236854622064782527e-01,-9.746613842715268206e-01,9.352690101342098217e+01
5.312160210789955705e+00,-2.835617342771707405e-01,4.828309222349245644e+00,3.465653250983188568e-06,2.785556033421949795e-01,-9.604201038267862200e-01,9.530489694474425733e+01
5.295995987855156351e+00,-4.961935607535402637e-01,4.584224303520219479e+00,4.348712533412948055e-06,3.432258924826906421e-01,-9.392528875178128844e-01,9.708289287606753248e+01
5.292182120982035443e+00,-5.297358797448817880e-01,4.542795171145572297e+00,5.389981992685646874e-06,4.193293986934354955e-01,-9.078341563095926325e-01,9.738374375458425902e+01
5.264249914760324778e+00,-7.138442064841624690e-01,4.297669236353283573e+00,6.606228258636695367e-06,5.079896788559327137e-01,-8.613631557782142067e-01,9.916173968590753418e+01
5.226836101091122622e+00,-8.707825021643085250e-01,4.052306326692487914e+00,7.992968312137277567e-06,6.087227226986705597e-01,-7.933830391471889953e-01,1.009397356172308093e+02
5.181551890451919995e+00,-1.000958362543557190e+00,3.807298589705549574e+00,9.499012691049410400e-06,7.175747844809218234e-01,-6.964814632041024245e-01,1.027177315485540845e+02
5.129955909640274037e+00,-1.104689596354164749e+00,3.563240734515325414e+00,1.099801946462060142e-05,8.250873702807146604e-01,-5.650051604032466646e-01,1.044957274798773597e+02
5.073564808359037670e+00,-1.182205099887195354e+00,3.320734321122224664e+00,1.228899672396712154e-05,9.164547767255063482e-01,-4.001382786812364145e-01,1.062737234112006348e+02
5.013863598458816462e+00,-1.233645468337261297e+00,3.080392099112999826e+00,1.316678229162339265e-05,9.768239431493884739e-01,-2.140443503499123712e-01,1.080517193425239100e+02
4.952315792565393338e+00,-1.259063344626071723e+00,2.842842427073492662e+00,1.353602420676427233e-05,9.996370965729789448e-01,-2.693835503368645357e-02,1.098297152738471851e+02
4.890373407576650067e+00,-1.258423505883220939e+00,2.608733804580135818e+00,1.345693500875725741e-05,9.897784747042666087e-01,1.426133613340837825e-01,1.116077112051704603e+02
4.829486897680032698e+00,-1.231602687216217795e+00,2.378739549456734714e+00,1.307940310891771565e-05,9.585391691157941763e-01,2.849608062518987905e-01,1.133857071364937354e+02
4.771115081113484813e+00,-1.178389141849649491e+00,2.153562654030844570e+00,1.255183411600699345e-05,9.168950898132603999e-01,3.991282928066919311e-01,1.151637030678170106e+02
4.716735124867443396e+00,-1.098481936156230798e+00,1.933940855415208215e+00,1.197773816850777515e-05,8.723983051854132809e-01,4.887956597251579827e-01,1.169416989991402858e+02
4.667852651902489214e+00,-9.914899775409360405e-01,1.720651956382712067e+00,1.141537077786391028e-05,8.292309958681848281e-01,5.589060344647817091e-01,1.187196949304635609e+02
4.626012036239305125e+00,-8.569307725742356663e-01,1.514519435211223231e+00,1.089205341942043072e-05,7.893017375037871819e-01,6.140055106062697332e-01,1.204976908617868361e+02
4.592806952469405068e+00,-6.942289122022907710e-01,1.316418384959835430e+00,1.041749736745418677e-05,7.532406537188803819e-01,6.577450246688526514e-01,1.222756867931101112e+02
4.569891247843907323e+00,-5.027142802909623231e-01,1.127281825012868888e+00,9.992502687506892199e-06,7.210411451229451485e-01,6.928922477123999890e-01,1.240536827244333864e+02
4.558990207133376771e+00,-2.816199811878536963e-01,9.481074304125816088e-01,9.613850316124328507e-06,6.924170029027910678e-01,7.214975356844193222e-01,1.258316786557566616e+02
4.561912282927464979e+00,-3.007998141293119487e-02,7.799647275155866533e-01,9.276832050679565070e-06,6.669849244970105229e-01,7.450712116352755654e-01,1.276096745870799367e+02
4.566050735826556739e+00,6.621066188321253487e-02,7.221965112406445453e-01,8.976475697239903219e-06,6.443514720962236764e-01,7.647294817952636770e-01,1.282458486553144326e+02
4.587550438152162791e+00,3.534994241395739145e-01,5.683816910745441708e-01,8.708091813747404459e-06,6.241508281080769827e-01,7.813038741080008398e-01,1.300238445866376935e+02
4.627465708522306542e+00,6.734348258997453485e-01,4.286963810053384116e-01,8.467482058952190987e-06,6.060582983568790771e-01,7.954202278802481318e-01,1.318018405179609545e+02
4.684067734284299789e+00,1.026408942415243164e+00,3.045884134582447222e-01,-1.626599012230452819e-03,5.015434635959562515e-01,8.651309197455753219e-01,1.335798364492842154e+02
4.747959624265359224e+00,1.411356515357924613e+00,1.978049831626458865e-01,-3.320637030477623878e-03,3.829243636191937972e-01,9.237737304754596313e-01,1.353578323806074764e+02
4.805889202501031576e+00,1.826603617544981795e+00,1.103117426817687846e-01,-4.985413870275661602e-03,2.552829091031326714e-01,9.668535473216115506e-01,1.371358283119307373e+02
4.825053861810869371e+00,1.991944067767308368e+00,8.140773830972253267e-02,-6.532673289337597410e-03,1.253858659326449743e-01,9.920865430011717168e-01,1.378160405577765744e+02
4.858003093604524203e+00,2.439912472996936366e+00,1.937647308092900825e-02,-7.896110403326194946e-03,0.000000000000000000e+00,9.999688252343162942e-01,1.395940364890998353e+02
4.857458460670612155e+00,2.912722367404914081e+00,-2.064590649857772284e-02,-8.421796475362591794e-02,1.117429754598912445e-01,9.901620280782975625e-01,1.413720324204230963e+02
4.823110328102589328e+00,3.403756595221133718e+00,-4.413686779096886309e-02,-1.686078142290051429e-01,2.355546566891647542e-01,9.571235075438107032e-01,1.431500283517463572e+02
4.758835168532215221e+00,3.904612852878851736e+00,-5.909618251757587509e-02,-2.556397457309488863e-01,3.635572594841142147e-01,8.958093767532332441e-01,1.449280242830696181e+02
4.668232090668522183e+00,4.406900505735301010e+00,-7.346208857803387948e-02,-3.377922420562208816e-01,4.847430153185202095e-01,8.067965110897172831e-01,1.467060202143928791e+02
4.554645024933010156e+00,4.902210881157926359e+00,-9.516854397062578241e-02,-4.081335337095787774e-01,5.888866509245734848e-01,6.975955354104351747e-01,1.484840161457161400e+02
4.421183005421174705e+00,5.382087350821215921e+00,-1.322024498447414154e-01,-4.629738909360599508e-01,6.704578684764272989e-01,5.797770458629515344e-01,1.502620120770394010e+02
4.270738670538197113e+00,5.837995102308176421e+00,-1.926612554011482292e-01,-5.024143593103287397e-01,7.294795710168736624e-01,4.641544646212399372e-01,1.520400080083626619e+02
4.106932036373658335e+00,6.263356541487657303e+00,-2.806220498694682042e-01,-4.763303412182168795e-01,6.656041491923633258e-01,5.745263463174229424e-01,1.538180039396859229e+02
3.935088801061511266e+00,6.655585501755485467e+00,-3.919816579536818391e-01,-4.377192559248404558e-01,5.810652808100573719e-01,6.861231612689757675e-01,1.555959998710091838e+02
3.764108440709910575e+00,7.008833377527798447e+00,-5.164890644724379198e-01,-3.859602415252074148e-01,4.766071889515940407e-01,7.898609240881986349e-01,1.573458956429751936e+02
3.594622421940242063e+00,7.333592816172204820e+00,-6.501847508572714540e-01,-3.231323839334201975e-01,3.574553865882927339e-01,8.762483147216426627e-01,1.591238915742984545e+02
3.435540128653842284e+00,7.622663087381905456e+00,-7.832908791870136778e-01,-2.538844153361318745e-01,2.324261028131373585e-01,9.388933967072764508e-01,1.609018875056217155e+02
3.293090484848690824e+00,7.874850110505752454e+00,-9.078405705565841810e-01,-1.838569150430171550e-01,1.109340179714261576e-01,9.766730663060081419e-01,1.626798834369449764e+02
3.173590929295506680e+00,8.088779024954423136e+00,-1.015805233427704790e+00,-1.177652196089313680e-01,0.000000000000000000e+00,9.930414659270077049e-01,1.644578793682682374e+02
3.083484396350763657e+00,8.262888307574900892e+00,-1.099036658035353886e+00,-7.875138647958604410e-02,-3.907659485333632443e-02,9.961281237181345283e-01,1.662358752995914983e+02
3.029377001560209504e+00,8.395422937692920584e+00,-1.149208248057652204e+00,-3.937569398339047649e-02,-7.815319118257080255e-02,9.961634571852687747e-01,1.680138712309147593e+02
3.018076654063900133e+00,8.484426578666242946e+00,-1.157754965687114224e+00,0.000000000000000000e+00,-1.168706797253571267e-01,9.931471412739065752e-01,1.697918671622380202e+02
3.052718020256034226e+00,8.529141304165062110e+00,-1.119286879408746715e+00,-4.498703449163282686e-02,-7.066673627109203160e-02,9.964850119858504884e-01,1.715698630935612812e+02
3.128885600741440953e+00,8.531446780146797693e+00,-1.035025611985760596e+00,-9.802587437648718760e-02,-1.556265608104405625e-02,9.950621747852885779e-01,1.733478590248845421e+02
3.161520687791748330e+00,8.524548126207413645e+00,-9.984351226893098952e-01,-1.602629301273451046e-01,4.999037353745782591e-02,9.858076667284461081e-01,1.739468349784638406e+02
3.273798545882640187e+00,8.483414937979631532e+00,-8.683554942440626645e-01,-2.322906804194930230e-01,1.271260014755334344e-01,9.643028671216795633e-01,1.757248309097871015e+02
3.409016442386202161e+00,8.407210493872291579e+00,-7.024726912181571414e-01,-3.133527334564120692e-01,2.157363347149164612e-01,9.248069519197875676e-01,1.775028268411103625e+02
3.559570283683881620e+00,8.298930532921261261e+00,-5.045647274090201417e-01,-4.002930590778317477e-01,3.132754233834331159e-01,8.611759262531912817e-01,1.792808227724336234e+02
3.717983307801573378e+00,8.161501222858358773e+00,-2.781786376430085417e-01,-4.868772434956951667e-01,4.137756981087102881e-01,7.692465283774008178e-01,1.810588187037568844e+02
3.876859213964360951e+00,7.997789445802396813e+00,-2.665606049566664193e-02,-5.646694496170272526e-01,5.083646559586915137e-01,6.501644324639763717e-01,1.828368146350801453e+02
4.029132428078665562e+00,7.810536751917370957e+00,2.467918875806795198e-01,-6.259850282508175878e-01,5.881199176527563965e-01,5.121110298225748370e-01,1.846148105664034063e+02
4.168319388002101888e+00,7.602290483555615097e+00,5.390106795165642284e-01,-6.671551002265087016e-01,6.477344500864963273e-01,3.678914981525142069e-01,1.863928064977266672e+02
4.288179880063337279e+00,7.375485979437902628e+00,8.469303986561176334e-01,-6.893760160160022910e-01,6.870074850937897271e-01,2.297420814021905733e-01,1.881708024290499282e+02
4.382381077002190928e+00,7.132531299909382838e+00,1.167594370028337991e+00,-6.968720440498064050e-01,7.093872705995001304e-01,1.055417193968167799e-01,1.899487983603731891e+02
4.444458193053317352e+00,6.875817024096671837e+00,1.498137835555795494e+00,-6.944727001609038997e-01,7.195171412526740751e-01,-1.658967993314762381e-03,1.917267942916964500e+02
4.467774433307782012e+00,6.607726248916004685e+00,1.835767292215876090e+00,-6.861811235721512192e-01,7.215741487053175529e-01,-9.212064683585628744e-02,1.935047902230197110e+02
4.446147650750026159e+00,6.330643332649510846e+00,2.178123806600560819e+00,-6.748055202131011399e-01,7.186867326536352518e-01,-1.677107336981394636e-01,1.952827861543429719e+02
4.374479875780180826e+00,6.046956906221381267e+00,2.523649463766288736e+00,-6.621269057880017073e-01,7.129750327387287534e-01,-2.307695025838888137e-01,1.970607820856662329e+02
4.252117405307296316e+00,5.758503248275598452e+00,2.870354609376044142e+00,-6.492091640470670777e-01,6.656845905752957204e-01,-3.679558223318517562e-01,1.988387780169894938e+02
4.235822316357817918e+00,5.726355107450672222e+00,2.908707995672235036e+00,-6.167995062634173964e-01,5.928219317757993378e-01,-5.178035595462955332e-01,1.990355412257926844e+02
4.069894609251177187e+00,5.433885879666760843e+00,3.252522388647277385e+00,-5.600707793858277217e-01,4.920495289586823140e-01,-6.664892970856248766e-01,2.008135371571159453e+02
3.872725003149380285e+00,5.137500268637291256e+00,3.588598938586032183e+00,-4.802025410650072601e-01,3.690371447135821770e-01,-7.957493986025729882e-01,2.025915330884392063e+02
3.655086962608063761e+00,4.837164696750658521e+00,3.912365664192017256e+00,-3.858586426627902410e-01,2.371287691190032410e-01,-8.915621429482836202e-01,2.043695290197624672e+02
3.427626744995859287e+00,4.532758530434920274e+00,4.219161800482019054e+00,-2.890350243624660309e-01,1.109474293103181186e-01,-9.508677208850979667e-01,2.061475249510857282e+02
3.200928172456170451e+00,4.224074266151013113e+00,4.504204183379182602e+00,-1.992136805227447960e-01,0.000000000000000000e+00,-9.799560752873477387e-01,2.079255208824089891e+02
2.985577016258831318e+00,3.910816955133328499e+00,4.762552751508647653e+00,2.883112816167542336e-01,-5.998126426602973238e-01,-7.463922551831410068e-01,2.097035168137322501e+02
2.789096063629909583e+00,3.593516703850848426e+00,4.989887059646782141e+00,2.552482812487095742e-01,-5.308645911956734187e-01,-8.081033973039775109e-01,2.114815127450555110e+02
2.612874834590588335e+00,3.274472005514085904e+00,5.183287261104641885e+00,2.176535941479652014e-01,-4.524812410659935225e-01,-8.648049719086096099e-01,2.132595086763787720e+02
2.455327254079063604e+00,2.956885792020536474e+00,5.340400905292829847e+00,1.762807733688252221e-01,-3.662355832173138648e-01,-9.136720344445061759e-01,2.150375046077020329e+02
2.315017952318933592e+00,2.643976652527004756e+00,5.458613827585852896e+00,1.323521674492808831e-01,-2.746766897309675381e-01,-9.523841766272239662e-01,2.168155005390252938e+02
2.306496586789969161e+00,2.623985904457659668e+00,5.464937286879043121e+00,8.739730309710785905e-02,-1.809925009028107157e-01,-9.795935004012114034e-01,2.169302552396339649e+02
2.182115105413058309e+00,2.319210794052216862e+00,5.541034486124342351e+00,4.299745237695774130e-02,-8.847743535216515132e-02,-9.951497186466942146e-01,2.187082511709572259e+02
2.072490796380766831e+00,2.025927279960455962e+00,5.571898784988577269e+00,5.300273656876602468e-04,0.000000000000000000e+00,-9.999998595354860909e-01,2.204862471022804868e+02
1.976595483151717847e+00,1.747470215747537026e+00,5.554005466039813932e+00,6.148589468779332937e-04,1.093599588812912554e-01,-9.940020228057676599e-01,2.222642430336037478e+02
1.893522875091389501e+00,1.487236637725091626e+00,5.483478151244908005e+00,6.941666141820093628e-04,2.201075042289444283e-01,-9.754753737100783084e-01,2.240422389649270087e+02
1.822483722487548086e+00,1.248697713537931131e+00,5.356060843894171697e+00,7.647220470374976094e-04,3.280798764832130732e-01,-9.446496757247897502e-01,2.258202348962502697e+02
1.762801827412749489e+00,1.035410998823359296e+00,5.167087232556525578e+00,8.242578295552722457e-04,4.294190013449196153e-01,-9.031050004750070803e-01,2.275982308275735306e+02
1.714508016707392057e+00,8.502992272593158374e-01,4.915718258305404653e+00,8.757773602902535785e-04,4.667510168087401490e-01,-8.843883317423529844e-01,2.293762267588967916e+02
1.678927793374805244e+00,6.949213820638678873e-01,4.609207285706780510e+00,9.413336845284276831e-04,5.147014690446407581e-01,-8.573689472182807192e-01,2.311542226902200525e+02
1.658077340595934812e+00,5.702036595464471391e-01,4.258681194518239899e+00,1.026349113978867111e-03,5.777375541243779944e-01,-8.162219460182859043e-01,2.329322186215433135e+02
1.655988474889105388e+00,5.523727883416180706e-01,4.197934035017405918e+00,1.137684306255965817e-03,6.620914268913234979e-01,-7.494222095130558259e-01,2.332239047747335974e+02
1.652613449151952851e+00,4.603842954824398648e-01,3.814273434816796371e+00,1.279605171346097098e-03,7.739492708967923296e-01,-6.332463096528310187e-01,2.350019007060568583e+02
1.668676058659790851e+00,4.014591148499248030e-01,3.410094243338158915e+00,1.432642930500313333e-03,9.065579123148470586e-01,-4.220790200348506493e-01,2.367798966373801193e+02
1.706549823745544758e+00,3.768390131684973832e-01,2.995818934531074618e+00,1.494330880673984353e-03,9.978063430512457144e-01,-6.618359873804614824e-02,2.385578925687033802e+02
1.768757238226585482e+00,3.878780442782320259e-01,2.581797164835283098e+00,1.307539512065591242e-03,9.318202747592444490e-01,3.629177122820416712e-01,2.403358885000266412e+02
1.857986601443341490e+00,4.360465721344823908e-01,2.178380419265121049e+00,9.550952734345363954e-04,7.378590471259408590e-01,6.749541572339688988e-01,2.421138844313499021e+02
1.975494953132772791e+00,5.209633036567715703e-01,1.794593830903555398e+00,6.398025758860295892e-04,5.479320998051190328e-01,8.365225667343452187e-01,2.438918803626731631e+02
2.119473248751251759e+00,6.384348757888083092e-01,1.436798434194851648e+00,4.137033783050888267e-04,4.063373533929814929e-01,9.137230346702999162e-01,2.456698762939964240e+02
2.286608160135781720e+00,7.824332838203896801e-01,1.110139883182435616e+00,2.565872753383472435e-04,3.058108812391673315e-01,9.520922429463932746e-01,2.474478722253196850e+02
2.473663537628926878e+00,9.470522020883472836e-01,8.199884039213747311e-01,1.448205652898759840e-04,2.333246184991017991e-01,9.723988900802243984e-01,2.492258681566429459e+02
2.677461645325571293e+00,1.126484353048428533e+00,5.719775268288496139e-01,6.255552514042085372e-05,1.794716326560910347e-01,9.837631468796559364e-01,2.510038640879662069e+02
2.894864510536296898e+00,1.314999374240214625e+00,3.720447180900715578e-01,-0.000000000000000000e+00,1.382410334876689184e-01,9.903986150334931349e-01,2.527818600192894678e+02
3.122831340602246541e+00,1.508003147490843299e+00,2.236043193507688265e-01,-4.992723301717889861e-02,1.387852320398179906e-01,9.890631581304109021e-01,2.545598559506127287e+02
3.358492215218498167e+00,1.703100793161487880e+00,1.247022895684365279e-01,-1.046515392272365647e-01,1.389839231979612955e-01,9.847494729269334890e-01,2.563378518819359897e+02
3.599078492875112723e+00,1.899005453885661110e+00,7.087199547234369901e-02,-1.643274916456081425e-01,1.387200739403683103e-01,9.766028960511233814e-01,2.581158478132592791e+02
3.836694991159146806e+00,2.090326861477467268e+00,5.756082531319432066e-02,-2.289116003755775619e-01,1.378552979878230611e-01,9.636365476828804288e-01,2.598561858816277663e+02
4.078885978209955354e+00,2.284101998660055699e+00,8.038312740397191014e-02,-2.980714559165184019e-01,1.362341678522818733e-01,9.447717495127609943e-01,2.616341818129510557e+02
4.317755011164803314e+00,2.474945631517246891e+00,1.367791130935196720e-01,-3.710921671365520758e-01,1.336944721068888398e-01,9.189213196013886753e-01,2.634121777442743451e+02
4.550498131703395899e+00,2.661629366619012504e+00,2.234022211541968062e-01,-4.468043533840692638e-01,1.300848701218681736e-01,8.851236051323115861e-01,2.651901736755976344e+02
4.774260025715006073e+00,2.842928281673453572e+00,3.371239010989344198e-01,-5.235688223598180535e-01,1.252895469450110155e-01,8.427207234185399853e-01,2.669681696069209238e+02
4.986116409850622766e+00,3.017616732159466242e+00,4.750110487534799919e-01,-5.993541257025144509e-01,1.192561746627274211e-01,7.915507544107248661e-01,2.687461655382442132e+02
5.183055946744226539e+00,3.184464275511776243e+00,6.343048514690299289e-01,-6.719246322523708681e-01,1.120197693070202200e-01,7.320989413029621584e-01,2.705241614695675025e+02
5.361961578479021107e+00,3.342231701104334984e+00,8.124008903979467178e-01,-7.391170975919275632e-01,1.037132708815523691e-01,6.655444939974597407e-01,2.723021574008907919e+02
5.519591164161311347e+00,3.489667155431888101e+00,1.006830356325286724e+00,-7.991388410066343484e-01,9.455829497198942057e-02,5.936630708125303357e-01,2.740801533322140813e+02
5.652557303055648852e+00,3.625502353030496394e+00,1.215242243577459025e+00,-8.507993478793605124e-01,8.483650149376756322e-02,5.185973752945083337e-01,2.758581492635373706e+02
5.757306219604854114e+00,3.748448864815469239e+00,1.435386393576513875e+00,-8.936087229154574541e-01,7.484981069093479822e-02,4.425618105631533017e-01,2.776361451948606600e+02
5.830095580786540665e+00,3.857194476659351778e+00,1.665097265742852883e+00,-9.277304380781719040e-01,6.488147432193486219e-02,3.675685358584102613e-01,2.794141411261839494e+02
5.866971109595238154e+00,3.950399612191914489e+00,1.902278318698781057e+00,-9.538286825583096595e-01,5.516783964190889039e-02,2.952411790355877197e-01,2.811921370575072388e+02
5.863741850944045098e+00,4.026693814987769571e+00,2.144886889123888363e+00,-9.728743278403230166e-01,4.588478749869541462e-02,2.267380173359535567e-01,2.829701329888305281e+02
5.815953937913590721e+00,4.084672286526377150e+00,2.390919459201997999e+00,-9.859649779892235566e-01,3.714721743132474996e-02,1.627671539832886427e-01,2.847481289201538175e+02
5.805757566850828333e+00,4.091532913353523426e+00,2.426051058789809201e+00,-9.941896519788633313e-01,2.901702302555773938e-02,1.036578423124889514e-01,2.850007523419989752e+02
5.707265308873211040e+00,4.129234212552214345e+00,2.673306287097693801e+00,-9.985446903084465031e-01,2.151479684084018143e-02,4.945315939053764737e-02,2.867787482733222646e+02
5.553760186660332110e+00,4.145441401491775757e+00,2.919539142389080411e+00,-9.998929495611769136e-01,1.463179475832167287e-02,0.000000000000000000e+00,2.885567442046455540e+02
5.344106319637908165e+00,4.141892730257650257e+00,3.162645343333256420e+00,-9.949470985324417871e-01,1.375404350413169177e-02,-9.945399644640726122e-02,2.903347401359688433e+02
5.085446124195884821e+00,4.126781000684564660e+00,3.400244252595511885e+00,-9.761557290503833917e-01,1.252952953649356417e-02,-2.167094910974336763e-01,2.921127360672921327e+02
4.789018340811115770e+00,4.111463287247534737e+00,3.629788609274981148e+00,-9.364708796315761585e-01,1.086474972686081279e-02,-3.505770226575530835e-01,2.938907319986154221e+02
4.465953315034940196e+00,4.107220461453482407e+00,3.848673059582718547e+00,-8.687726449851036481e-01,8.703471553239725683e-03,-4.951346694673166571e-01,2.956687279299387114e+02
4.127341112568230663e+00,4.125300044540002986e+00,4.054215365929276338e+00,-7.694238915715623239e-01,6.086998746130626615e-03,-6.387094985399365266e-01,2.974467238612620008e+02
3.784299854227767046e+00,4.176958475279248795e+00,4.243637061495677543e+00,-6.422943785464311217e-01,3.192214874744934115e-03,-7.664513951007247972e-01,2.992247197925852902e+02
3.448044687116152307e+00,4.273502948689499981e+00,4.414043410758964114e+00,-4.992018782705887614e-01,2.882147775144932884e-04,-8.664856615451627109e-01,3.010027157239085795e+02
3.435369890303054063e+00,4.278184477409275210e+00,4.420194201470350137e+00,-3.549769217237639940e-01,-2.376072919728872395e-03,-9.348720443574087824e-01,3.010710064071827787e+02
3.117588477133717451e+00,4.431366816168735845e+00,4.568434321981157176e+00,-2.213086424354371029e-01,-4.658605064507661923e-03,-9.751926897707123842e-01,3.028490023385060681e+02
2.830639863561259073e+00,4.650081424004818942e+00,4.692738773787814566e+00,-1.041521328463125562e-01,-6.529672326202733482e-03,-9.945399421857709088e-01,3.046269982698293575e+02
2.830427616479664010e+00,4.650281576683442886e+00,4.692827572059925956e+00,-4.730092251022989698e-03,-8.028414844100014922e-03,-9.999565844487389166e-01,3.046284048013861820e+02
2.582048690314736827e+00,4.934419513216673714e+00,4.794750312861991937e+00,-4.489098827714780790e-03,-1.331615130659381807e-01,-9.910841838258266367e-01,3.064064007327094714e+02
2.369187504683878398e+00,5.274019850927721187e+00,4.878192846464409094e+00,-4.165788890011972237e-03,-2.602835931713169404e-01,-9.655232246449342304e-01,3.081843966640327608e+02
2.183118396811768225e+00,5.655691818325096598e+00,4.947444519815134889e+00,-3.772437496517260479e-03,-3.830293987656224752e-01,-9.237284494896649267e-01,3.099623925953560502e+02
2.015134669809563128e+00,6.066261364920407573e+00,5.006692329318011225e+00,-3.331464699949183809e-03,-4.956675447032866666e-01,-8.685059507399867096e-01,3.117403885266793395e+02
1.859704878671082806e+00,6.494275920114667144e+00,5.057544868052960219e+00,9.551233854674845425e-02,-4.534500797194142008e-01,-8.861492077453932970e-01,3.135183844580026289e+02
1.770140499252635724e+00,6.760463291514891893e+00,5.084209440525006229e+00,1.969786722059691242e-01,-4.039036769972883523e-01,-8.933427239330062886e-01,3.146046353133045272e+02
1.635716424518917966e+00,7.198293765396484467e+00,5.115758520272741805e+00,2.971981540902088881e-01,-3.484377838807957151e-01,-8.889681478937321302e-01,3.163826312446278166e+02
1.521403808812761271e+00,7.634178869814179258e+00,5.125583526488298958e+00,3.922964637784786546e-01,-2.891966208739477628e-01,-8.731945939949415925e-01,3.181606271759511060e+02
1.430800373644313561e+00,8.061265631334160631e+00,5.107501368464806291e+00,4.791095088962391002e-01,-2.286633769037966224e-01,-8.474474252413284336e-01,3.199386231072743954e+02
1.361518167979086646e+00,8.472747922586295388e+00,5.056080032480879005e+00,4.277344557689730098e-01,-4.189619162130496788e-01,-8.009457835029222261e-01,3.217166190385976847e+02
1.300608385737166639e+00,8.862385586519208047e+00,4.967301212102227304e+00,3.588157289843061926e-01,-5.920765985521623254e-01,-7.215930806766113204e-01,3.234946149699209741e+02
1.235630099366437973e+00,9.225740066748736368e+00,4.839826983283155748e+00,3.710001137065984667e-01,-6.112340712677999388e-01,-6.991078784787659872e-01,3.252726109012442635e+02
1.165240986017960223e+00,9.561189417095185661e+00,4.676369327194748848e+00,3.848285189948324470e-01,-6.329400313514497167e-01,-6.717841377117128587e-01,3.270506068325675528e+02
1.093635867511876025e+00,9.868425439299208790e+00,4.481545193721314213e+00,4.005468123544390080e-01,-6.575596052723514662e-01,-6.381047066326709372e-01,3.288286027638908422e+02
1.093264209584076996e+00,9.869955611328764533e+00,4.480451831670742457e+00,4.183812151801464818e-01,-6.854142826986431292e-01,-5.959567264970572209e-01,3.288378871161978054e+02
1.024645137653894977e+00,1.014853245304669649e+01,4.258666117161613585e+00,4.384536744836514122e-01,-7.166407841724026229e-01,-5.423876490044254872e-01,3.306158830475210948e+02
9.632138152339168036e-01,1.039786688384541691e+01,4.014131143864013929e+00,4.605948361812769454e-01,-7.508841472669939288e-01,-4.733132094778912391e-01,3.323938789788443842e+02
9.132033272791718614e-01,1.061724230722120232e+01,3.750879098226584940e+00,4.839621482522275531e-01,-7.866786300308246105e-01,-3.832980199686842893e-01,3.341718749101676735e+02
8.789085798960621920e-01,1.080580089452404557e+01,3.472807171205669619e+00,5.063468354280735717e-01,-8.203375640714855033e-01,-2.658179136650442032e-01,3.359498708414909629e+02
8.647112414457652774e-01,1.096253986384452794e+01,3.183705666455995953e+00,5.231975394492481835e-01,-8.444169279971081021e-01,-1.149973322567919704e-01,3.377278667728142523e+02
8.751051744103096608e-01,1.108630704500040665e+01,2.887285337605185020e+00,5.270841434487758548e-01,-8.469460125070260581e-01,6.974781446983720212e-02,3.395058627041375416e+02
9.147225070546662895e-01,1.117579571016359097e+01,2.587204151782869221e+00,5.096199535699202920e-01,-8.146606975938575079e-01,2.767949615135392727e-01,3.412838586354608310e+02
9.866139269517032462e-01,1.122972952675520553e+01,2.286817423052134757e+00,4.671516242894746540e-01,-7.421974406437068517e-01,4.805333693154271724e-01,3.430618545667841204e+02
1.089701111141645251e+00,1.124712218813925091e+01,1.988628638732693021e+00,4.054493415504424325e-01,-6.394018483464284364e-01,6.532810327626874525e-01,3.448398504981074097e+02
1.219699282713334387e+00,1.122717154434359621e+01,1.694286640700473523e+00,3.363412758723611229e-01,-5.255860799552167784e-01,7.814306230893827143e-01,3.466178464294306991e+02
1.371659664426031489e+00,1.116902447368944884e+01,1.405170891096938934e+00,2.700516460313315270e-01,-4.171496046302283212e-01,8.677893268718006592e-01,3.483958423607539885e+02
1.540759062539073465e+00,1.107171740341292754e+01,1.122698545867732323e+00,2.117334402405124383e-01,-3.221776913502060191e-01,9.226973964849846110e-01,3.501738382920772779e+02
1.722268848735211133e+00,1.093417195045353196e+01,8.483346759426436678e-01,1.625628836443239189e-01,-2.423554078948808310e-01,9.564712045458284573e-01,3.519518342234005672e+02
1.911524476586526466e+00,1.075519033840741479e+01,5.836028339603813730e-01,1.217926875614132459e-01,-1.763255222905919239e-01,9.767680643046833255e-01,3.537298301547238566e+02
2.103895341846120814e+00,1.053345057047581967e+01,3.300960427826928334e-01,8.808025596708818350e-02,-1.218252817029343155e-01,9.886356605174492218e-01,3.555078260860471460e+02
2.153530499643184104e+00,1.047027939920453932e+01,2.664396664145755600e-01,6.008202194249540051e-02,-7.662816760113214110e-02,9.952478457999264227e-01,3.559660701854071476e+02
2.343350133834114057e+00,1.020093918736294114e+01,2.722323051447805842e-02,3.665033519335467171e-02,-3.884731288081888501e-02,9.985728011578097751e-01,3.577440661167304370e+02
2.525610931452438201e+00,9.885583349301786171e+00,-1.965323770451812557e-01,1.686364155407790028e-02,-6.974788989329333729e-03,9.998334710901060074e-01,3.595220620480537264e+02
2.695586405042691869e+00,9.522481437172924501e+00,-4.029386061976151234e-01,-0.000000000000000000e+00,2.016684970649313888e-02,9.997966284064554454e-01,3.613000579793770157e+02
2.850204212247850588e+00,9.111171664578224139e+00,-5.858729765093076969e-01,5.299408648323520980e-03,-4.322795528403634152e-02,9.990511799452215236e-01,3.630780539107003051e+02
2.989796170987705892e+00,8.653859815769479269e+00,-7.308261199337011682e-01,1.077128202620017926e-02,-1.087720828634955728e-01,9.940083568426620886e-01,3.648560498420235945e+02
3.089544835805686507e+00,8.272038062667183667e+00,-8.091281935351326560e-01,1.634963518142767275e-02,-1.756835734471836885e-01,9.843109119837401000e-01,3.662354346789903730e+02
3.208822053079369852e+00,7.748113932347129307e+00,-8.489146219680017147e-01,2.195816785362208687e-02,-2.430538179892776651e-01,9.697642396094771078e-01,3.680134306103136623e+02
3.321529311031390375e+00,7.190951487615339310e+00,-8.061934043385434734e-01,2.751478416126709042e-02,-3.099009212762267595e-01,9.503706411946365451e-01,3.697914265416369517e+02
3.438814974714756723e+00,6.613384663064184821e+00,-6.878568741863384517e-01,3.293725145712044639e-02,-3.752370949025933822e-01,9.263434892498099149e-01,3.715694224729602411e+02
3.575057201686719033e+00,6.031364753381996735e+00,-5.092979901553130739e-01,3.814914801850265158e-02,-4.381399993126932069e-01,8.980968675525683453e-01,3.733474184042835304e+02
3.744926439171341048e+00,5.460728397862907535e+00,-2.854753618672011273e-01,4.308512688360124909e-02,-4.978163835467758758e-01,8.662115908447735046e-01,3.751254143356068198e+02
3.963475050985516113e+00,4.917254764637550402e+00,-3.102113772820858095e-02,4.769467608970092559e-02,-5.536480939582955063e-01,8.313837897920820508e-01,3.769034102669301092e+02
4.246229927401023119e+00,4.416721905202079412e+00,2.396534618402796080e-01,5.194392941761561550e-02,-6.052149264965294151e-01,7.943656091136236386e-01,3.786814061982533985e+02
4.597644991871181475e+00,3.969730637379323746e+00,5.158239724247968283e-01,5.342764067181552529e-02,-6.266422139607830122e-01,7.774734869399545500e-01,3.804594021295766879e+02
4.999409395674509149e+00,3.576613469468155060e+00,7.939451040810774352e-01,5.511831121404035805e-02,-6.511964193753613239e-01,7.569050106596075800e-01,3.822373980608999773e+02
5.421865783062548516e+00,3.232821967485114190e+00,1.074055403369631456e+00,5.705248300017507629e-02,-6.794866303774619309e-01,7.314662899421933151e-01,3.840153939922232667e+02
5.835436549297096320e+00,2.934192616258964215e+00,1.356207763534871269e+00,5.926969977797565819e-02,-7.122149112578500807e-01,6.994548040225339047e-01,3.857933899235465560e+02
6.210445678213793563e+00,2.677006606733459915e+00,1.640182156369013544e+00,6.180638363480843445e-02,-7.501217571447653665e-01,6.584051339411296500e-01,3.875713858548698454e+02
6.513242971383653490e+00,2.467015852860576786e+00,1.911467558106231923e+00,6.467977581946898757e-02,-7.938125960383236590e-01,6.047132287050120958e-01,3.892641019700976699e+02
6.770407290628146058e+00,2.280232118570213462e+00,2.196213995016564446e+00,6.784986903563711147e-02,-8.433059458971831068e-01,5.331336388620625533e-01,3.910420979014209593e+02
6.968514988325503090e+00,2.126146474556817267e+00,2.479559527159523213e+00,7.113648632162269947e-02,-8.969847644520690944e-01,4.363002780822857751e-01,3.928200938327442486e+02
7.111866760272360644e+00,2.002068980712266466e+00,2.760291097692188611e+00,7.406153541456639289e-02,-9.494820861346485730e-01,3.049568118298600639e-01,3.945980897640675380e+02
7.204396056780976387e+00,1.905394601719178294e+00,3.037176796729793793e+00,7.563280223945668956e-02,-9.885152286300311619e-01,1.308331838331716346e-01,3.963760856953908274e+02
7.249694261630199144e+00,1.833595816558677649e+00,3.308956976287616758e+00,7.431359037103180132e-02,-9.936075381194459100e-01,-8.497970627379398956e-02,3.981540816267141167e+02
7.251033678468996158e+00,1.784215356766116312e+00,3.574335165163184502e+00,6.875388222202273580e-02,-9.446131117038752967e-01,-3.209033699986992838e-01,3.999320775580374061e+02
7.211388467934917834e+00,1.754859060462147013e+00,3.831968718233937921e+00,5.920016891937645437e-02,-8.407448439059663770e-01,-5.381853281588505622e-01,4.017100734893606955e+02
7.133453665951908107e+00,1.743188828699170578e+00,4.080459132729114202e+00,4.770886879982980111e-02,-7.060823118390484598e-01,-7.065207942770440619e-01,4.034880694206839848e+02
7.019662401674546359e+00,1.746915670208702309e+00,4.318341961632957471e+00,3.651169956942362793e-02,-5.696892572002969501e-01,-8.210487476545629271e-01,4.052660653520072742e+02
6.872201422275050930e+00,1.763792820206798728e+00,4.544076251470773542e+00,2.679437699736967812e-02,-4.484923867706303025e-01,-8.933849340402524319e-01,4.070440612833305636e+02
6.693025021155977861e+00,1.791608918506176984e+00,4.756033428298536592e+00,1.880455500725319168e-02,-3.472436282249047879e-01,-9.375863967486853801e-01,4.088220572146538530e+02
6.483867456148307618e+00,1.828181231789355099e+00,4.952485551738485370e+00,1.235733371669495845e-02,-2.646042011682354089e-01,-9.642779231256589645e-01,4.106000531459771423e+02
6.246253934763924320e+00,1.871348904511793476e+00,5.131592852343792366e+00,7.159238732790677157e-03,-1.974004641425284867e-01,-9.802967928423927946e-01,4.123780490773004317e+02
5.981510234554826333e+00,1.918966222522695109e+00,5.291390462403330552e+00,2.936771257728034139e-03,-1.424429834163480901e-01,-9.897986521763048051e-01,4.141560450086237211e+02
5.690771018025206907e+00,1.968895873109126615e+00,5.429774244483469126e+00,-5.306653988781821546e-04,-9.706951936257435243e-02,-9.952774622209392685e-01,4.159340409399470104e+02
5.374986893298807189e+00,2.019002184782844100e+00,5.544485615498513376e+00,-3.411968436677672786e-03,-5.919967490673815752e-02,-9.982403302623690244e-01,4.177120368712702998e+02
5.352815237908417956e+00,2.022360717952201625e+00,5.551392352590812429e+00,-5.834286878039793810e-03,-2.724531382978441843e-02,-9.996117516170672790e-01,4.178321699145682260e+02
5.012739057964010314e+00,2.070497332903483922e+00,5.639755500471067329e+00,-7.893222081534517071e-03,-0.000000000000000000e+00,-9.999688480373634114e-01,4.196101658458915153e+02
4.649597251452200375e+00,2.115914814370202457e+00,5.700127260883181002e+00,-5.258636192550711179e-03,0.000000000000000000e+00,-9.999861732771080369e-01,4.213881617772148047e+02
4.554137496782476369e+00,2.127231302054650719e+00,5.711618032367231201e+00,-2.623995446192593783e-03,0.000000000000000000e+00,-9.999965573180231715e-01,4.218407025471374254e+02
4.168734509419397938e+00,2.173248342997280425e+00,5.742044077420788817e+00,1.064529351364108455e-05,0.000000000000000000e+00,-9.999999999433388798e-01,4.236186984784607148e+02
3.839040826923788785e+00,2.214548096821783663e+00,5.747606079690736003e+00,5.077942819261210307e-03,0.000000000000000000e+00,-9.999871071652496335e-01,4.250826618766461706e+02
3.428526090700475759e+00,2.274261537519864262e+00,5.728876348110199856e+00,1.014510983321466504e-02,0.000000000000000000e+00,-9.999485370490184266e-01,4.268606578079694600e+02
3.014270017143794167e+00,2.350616656052425313e+00,5.676836328398932707e+00,4.723750816854135892e-02,5.100349658517703416e-02,-9.975807040826886185e-01,4.286386537392927494e+02
2.610146215877924725e+00,2.449244656129287101e+00,5.586117193208136378e+00,8.491757548568787395e-02,1.028723909916430396e-01,-9.910632051212955318e-01,4.304166496706160387e+02
2.232633415895960649e+00,2.575411286727153470e+00,5.450407628547536021e+00,1.227207834064554665e-01,1.549701476500119079e-01,-9.802672404285676100e-01,4.321946456019393281e+02
1.891846058334467395e+00,2.731563911463343874e+00,5.267091768049596112e+00,1.601599268888644068e-01,2.066268627063546637e-01,-9.652223253878262632e-01,4.339726415332626175e+02
1.882292012162196215e+00,2.736648210750705967e+00,5.260944758338061966e+00,1.967555270317479788e-01,2.571809744174259338e-01,-9.461211386393195699e-01,4.340254829813747506e+02
1.575357982456856654e+00,2.919642669887780873e+00,5.035214089104441904e+00,2.320660614383679154e-01,3.060209735409380460e-01,-9.233073739993308271e-01,4.358034789126980399e+02
1.292873012900678020e+00,3.123531708860853850e+00,4.776060952882026811e+00,2.657136782167191513e-01,3.526211201874115408e-01,-8.972483417684966600e-01,4.375814748440213293e+02
1.025686295669684611e+00,3.342667258169849553e+00,4.492038974301965304e+00,3.532833449224508371e-01,2.648814910786053689e-01,-8.972339014350602104e-01,4.393594707753446187e+02
7.684697058503316969e-01,3.571837427322834824e+00,4.190451654170174400e+00,4.435797483983231482e-01,2.120629220112461577e-01,-8.707848895788974364e-01,4.411374667066679081e+02
5.465008057100207983e-01,3.783117162352367835e+00,3.908204649869063907e+00,5.430764062118524915e-01,1.468431325078858873e-01,-8.267436794141764800e-01,4.427394263864833306e+02
3.168295087217306016e-01,4.018917047065546200e+00,3.587055897226391732e+00,6.467430050977771572e-01,6.887023069837844291e-02,-7.595922436943709499e-01,4.445174223178066200e+02
1.111117859895513066e-01,4.252152217988655281e+00,3.260898488012623719e+00,7.457522694669791452e-01,-1.950937981617376082e-02,-6.659376372334263605e-01,4.462954182491299093e+02
-6.442553296521903727e-02,4.478539714263578553e+00,2.933519750072713261e+00,8.291295136237626373e-01,-1.125261355719629625e-01,-5.476149362930701203e-01,4.480734141804531987e+02
-2.034168886938075571e-01,4.693728403066896426e+00,2.608698202464049043e+00,8.879610884896912415e-01,-2.022116507415194775e-01,-4.130805655469552695e-01,4.498514101117764881e+02
-2.993195375331186847e-01,4.893281579847386098e+00,2.290230807732851925e+00,9.193965328916243740e-01,-2.814204113980657840e-01,-2.747955009737311771e-01,4.516294060430997774e+02
-3.453741981772622260e-01,5.072658985174980373e+00,1.981960357212239066e+00,9.269605600007211343e-01,-3.463506551040778647e-01,-1.441712312222015180e-01,4.534074019744230668e+02
-3.345645629745508942e-01,5.227198163833422839e+00,1.687803186858724436e+00,9.174815408872012412e-01,-3.967807004859524311e-01,-2.815489039445576852e-02,4.551853979057463562e+02
-2.595754316513934068e-01,5.352095087706116416e+00,1.411777423525628627e+00,8.977905864051844986e-01,-4.346722246363473596e-01,7.093743787256295841e-02,4.569633938370696455e+02
-1.176174855956549220e-01,5.444284104100463040e+00,1.162277797803763502e+00,8.903294136535073733e-01,-4.310599457587354078e-01,1.466317098920899009e-01,4.587413897683929349e+02
8.474793697817604998e-02,5.504367914129405293e+00,9.493165548969547674e-01,8.755604706721340502e-01,-4.239095674333509534e-01,2.317208252075335928e-01,4.605193856997162243e+02
3.364774062686113898e-01,5.534782739442068333e+00,7.732843668720491559e-01,8.509677330483310653e-01,-4.120029367041739277e-01,3.257414579965539625e-01,4.622973816310395136e+02
3.784331862309814887e-01,5.537194195775736461e+00,7.489847319620249744e-01,8.139060534363894428e-01,-3.940593829792780056e-01,4.269357549627249560e-01,4.625694519945420780e+02
6.689003674549411915e-01,5.539704993370605735e+00,6.038691242603866360e-01,7.621921360393365541e-01,-3.690218422854357749e-01,5.318703109556468522e-01,4.643474479258653673e+02
9.857581237876108515e-01,5.517699387295743385e+00,4.822756555055056071e-01,6.949585593835720942e-01,-3.364703389212749252e-01,6.354685765368045525e-01,4.661254438571886567e+02
1.318753176084145551e+00,5.473532154205298816e+00,3.781884960224792813e-01,6.134480117169942570e-01,-2.970065215843769035e-01,7.317572432554497741e-01,4.679034397885119461e+02
1.657595216801818871e+00,5.409729516641804459e+00,2.857178310118636544e-01,5.212187662412636202e-01,-2.523531476894603776e-01,8.152600116338076797e-01,4.696814357198352354e+02
