3.653685082630415248e+00,1.489593783352046508e+00,1.473357876456735105e-01,6.917631340297906810e-06,5.233625511354343951e-01,8.521101102681251094e-01,9.708571807506474727e+01
3.451403544272834800e+00,1.438971122467322727e+00,1.693543180302075346e-01,5.244725942999729513e-06,4.324741670809700844e-01,9.016463246640081808e-01,9.831853616129085083e+01
3.284116984042085186e+00,1.410964432244106614e+00,1.887133303795939798e-01,3.496483940605983548e-06,3.358860920604326283e-01,9.419026134097649994e-01,9.925900146017031034e+01
3.048988881905498882e+00,1.387754094453544029e+00,2.186607735838698441e-01,1.729407804009749191e-06,2.367200134529608424e-01,9.715779100143432379e-01,1.004918195463964139e+02
2.795028708681696283e+00,1.381137070888673879e+00,2.554925254599634821e-01,-0.000000000000000000e+00,1.382410334876689184e-01,9.903986150334931349e-01,1.017246376326225175e+02
2.523507628695602634e+00,1.390663495623317480e+00,3.006010543938714141e-01,0.000000000000000000e+00,1.392885225618332445e-01,9.902518404338067626e-01,1.029574557188486210e+02
2.235674760307997833e+00,1.415884581841800882e+00,3.553890362502806766e-01,0.000000000000000000e+00,1.404230576300903310e-01,9.900915941900608752e-01,1.041902738050747246e+02
1.934351156833588048e+00,1.456364290132728723e+00,4.208308055645070267e-01,0.000000000000000000e+00,1.416559541676781775e-01,9.899159513053846782e-01,1.054230918913008281e+02
1.625525472632953994e+00,1.511682389373437907e+00,4.970332784749307842e-01,0.000000000000000000e+00,1.430005767244854065e-01,9.897226051053217288e-01,1.066559099775269317e+02
1.333177783292752494e+00,1.576973507618947945e+00,5.785085972579618874e-01,0.000000000000000000e+00,1.444728244754609758e-01,9.895087685251114928e-01,1.078221486953779049e+02
1.031294740325317427e+00,1.659250743152204111e+00,6.742571866580111539e-01,0.000000000000000000e+00,1.460917616192904389e-01,9.892710433379582335e-01,1.090549667816040085e+02
7.442162445257965997e-01,1.755028476678530458e+00,7.798537285113213979e-01,0.000000000000000000e+00,1.478804456394974820e-01,9.890052445753073629e-01,1.102877848678301120e+02
4.795193930394812676e-01,1.863802637239930338e+00,8.950143808262117640e-01,0.000000000000000000e+00,1.498670298225731612e-01,9.887061612896725915e-01,1.115206029540562156e+02
2.447982270055531762e-01,1.985043400756468790e+00,1.019467096715105825e+00,0.000000000000000000e+00,1.520862520745769608e-01,9.883672252406533465e-01,1.127534210402823192e+02
4.767101114298882142e-02,2.118194903794844208e+00,1.152951288886708392e+00,0.000000000000000000e+00,1.545814775765546600e-01,9.879800437206457397e-01,1.139862391265084227e+02
-1.042126947521918451e-01,2.262670831905035040e+00,1.294978831975200473e+00,0.000000000000000000e+00,1.574075512497567220e-01,9.875337274288686906e-01,1.152190572127345263e+02
-2.068623021786620275e-01,2.417855316329887483e+00,1.444574513579862440e+00,0.000000000000000000e+00,1.606348605783454730e-01,9.870139014051299009e-01,1.164518752989606298e+02
-2.636395124923401334e-01,2.583131942549448556e+00,1.600493237188310713e+00,0.000000000000000000e+00,1.643552526104040679e-01,9.864012119514908861e-01,1.176846933851867334e+02
-2.815639573380336880e-01,2.757912044550311137e+00,1.761477433611335908e+00,0.000000000000000000e+00,1.686908717881101527e-01,9.856690061959781923e-01,1.189175114714128370e+02
-2.676225313414911655e-01,2.941638970111798201e+00,1.926275780739001187e+00,0.000000000000000000e+00,1.738077477070857080e-01,9.847796031787976467e-01,1.201503295576389405e+02
-2.287760079628352872e-01,3.133787748525958428e+00,2.093641660324260911e+00,0.000000000000000000e+00,1.799373958852781286e-01,9.836780639833464512e-01,1.213831476438650441e+02
-1.719656325912734818e-01,3.333864797163786697e+00,2.262331620567560098e+00,0.000000000000000000e+00,1.874125261815797749e-01,9.822812962844394979e-01,1.226159657300911476e+02
-1.041196990369170211e-01,3.541407666695941536e+00,2.431103842606920029e+00,0.000000000000000000e+00,1.967288726586394754e-01,9.804579290629765742e-01,1.238487838163172512e+02
-3.292226346940804738e-02,3.755987136627798595e+00,2.598716371909362444e+00,0.000000000000000000e+00,2.086583978580961451e-01,9.779885853133932772e-01,1.250816019025433548e+02
3.511190948042285098e-02,3.976943718524751592e+00,2.764303633170689167e+00,0.000000000000000000e+00,2.244712516728031848e-01,9.744807115445872636e-01,1.263144199887694583e+02
3.748659257274628703e-02,3.985084785524477535e+00,2.770282588301605564e+00,0.000000000000000000e+00,2.464100414956375273e-01,9.691656677008931853e-01,1.263592416691851810e+02
1.004875327205316665e-01,4.211220493026469391e+00,2.933730935264886597e+00,0.000000000000000000e+00,2.788220536388201776e-01,9.603427838041116438e-01,1.275920597554112845e+02
1.592298664198810165e-01,4.441072998044050202e+00,3.095308684472394045e+00,0.000000000000000000e+00,3.312901220287873261e-01,9.435289370475878901e-01,1.288248778416374023e+02
2.144720771130717019e-01,4.673206403218602034e+00,3.255277432161745477e+00,0.000000000000000000e+00,4.291556266158265687e-01,9.032305620072746954e-01,1.300576959278635059e+02
2.669544596379815338e-01,4.906182649656676276e+00,3.413896790229276945e+00,0.000000000000000000e+00,6.555188665143618643e-01,7.551787971359671392e-01,1.312905140140896094e+02
3.173998311238643844e-01,5.138561038085392774e+00,3.571424706400351923e+00,0.000000000000000000e+00,9.937089890008612425e-01,-1.119930586192118688e-01,1.325233321003157130e+02
3.665142196286944598e-01,5.368897746166428675e+00,3.728117782347281750e+00,0.000000000000000000e+00,4.709891738745627388e-01,-8.821389902350745826e-01,1.337561501865418165e+02
4.149875311625361718e-01,5.595745341872341072e+00,3.884231590147313451e+00,0.000000000000000000e+00,2.173510227635927772e-01,-9.760935062296133280e-01,1.349889682727679201e+02
4.634941957188710160e-01,5.817652292824928573e+00,4.040020987471012681e+00,0.000000000000000000e+00,1.129708967407800357e-01,-9.935982973463591827e-01,1.362217863589940237e+02
5.126937929139655514e-01,6.033162471491302803e+00,4.195740431889654509e+00,0.000000000000000000e+00,5.807658124818171341e-02,-9.983121309042194413e-01,1.374546044452201272e+02
5.632316578130566187e-01,6.240814656129399118e+00,4.351644294689230641e+00,0.000000000000000000e+00,2.451383760970931441e-02,-9.996994907299117106e-01,1.386874225314462308e+02
6.157394675007634710e-01,6.439142027370744259e+00,4.507987174577658074e+00,0.000000000000000000e+00,1.942367119130872883e-03,-9.999981136032081164e-01,1.399202406176723343e+02
6.708358089332765450e-01,6.626671660324383595e+00,4.665024211672171184e+00,0.000000000000000000e+00,-1.425459855348546606e-02,-9.998983980485612877e-01,1.411530587038984379e+02
7.291267285904515782e-01,6.801924012081999926e+00,4.823011402154520511e+00,0.000000000000000000e+00,-2.643449416952564635e-02,-9.996505477005459550e-01,1.423858767901245415e+02
7.912062644262908284e-01,6.963412404500487263e+00,4.982205913981986534e+00,0.000000000000000000e+00,-3.592298205538072692e-02,-9.993545613846213094e-01,1.436186948763506450e+02
8.576569605974032617e-01,7.109642502134418507e+00,5.142866404043516582e+00,0.000000000000000000e+00,-4.352148875482402673e-02,-9.990524911217446569e-01,1.448515129625767486e+02
9.290503654306746517e-01,7.239111785187153814e+00,5.305253337152161741e+00,0.000000000000000000e+00,-4.974255324090240404e-02,-9.987620729668682529e-01,1.460843310488028521e+02
1.005947513073375932e+00,7.350309017345523444e+00,5.469629307267253715e+00,0.000000000000000000e+00,-5.492903392623683240e-02,-9.984902609599807244e-01,1.473171491350289557e+02
1.088899389251261285e+00,7.441713708359307233e+00,5.636259361342306207e+00,0.000000000000000000e+00,-5.931886698979861594e-02,-9.982390855997607115e-01,1.485499672212550593e+02
1.178766603629968879e+00,7.512509297042139877e+00,5.804034190055154419e+00,0.000000000000000000e+00,-6.308230414795909513e-02,-9.980083280731600892e-01,1.497827853074811628e+02
1.277049098640368641e+00,7.563294862413413533e+00,5.969091623588694162e+00,0.000000000000000000e+00,-6.634435820531714434e-02,-9.977967859911779369e-01,1.510156033937072664e+02
1.385582894136589971e+00,7.595369003344770498e+00,6.126189004683118888e+00,0.000000000000000000e+00,-6.919887994231406492e-02,-9.976028844258265638e-01,1.522484214799333699e+02
1.456087860622927721e+00,7.607383547345555996e+00,6.216371605629794850e+00,0.000000000000000000e+00,-7.171769072826131297e-02,-9.974249710312076411e-01,1.529945323075181705e+02
1.582054251396608491e+00,7.616043231812548164e+00,6.353050628023068747e+00,0.000000000000000000e+00,-7.395668342181710431e-02,-9.972614546733695740e-01,1.542273503937442740e+02
1.723150321466093704e+00,7.609315453300755649e+00,6.468010546841075126e+00,0.000000000000000000e+00,-7.596000342281385154e-02,-9.971108653906074482e-01,1.554601684799703776e+02
1.880221428449360133e+00,7.588266830163402865e+00,6.556145067555602779e+00,0.000000000000000000e+00,-7.776297918424684985e-02,-9.969718747629695565e-01,1.566929865661964811e+02
2.051947555796406419e+00,7.553581600643151539e+00,6.613775593195649449e+00,0.000000000000000000e+00,-7.939421761065955374e-02,-9.968432967171878545e-01,1.579258046524225847e+02
2.235887423386188289e+00,7.505743519190707147e+00,6.639513050102761937e+00,0.000000000000000000e+00,-8.087712927115425776e-02,-9.967240791517264498e-01,1.591586227386486883e+02
2.429585878258373466e+00,7.445231446804815967e+00,6.632993533696005528e+00,0.000000000000000000e+00,-8.223105650989855075e-02,-9.966132917763368404e-01,1.603914408248747918e+02
2.630602390583971939e+00,7.372529306070235045e+00,6.593813357887284177e+00,0.000000000000000000e+00,-8.347212001055670516e-02,-9.965101129346070064e-01,1.616242589111008954e+02
2.749509756990299092e+00,7.325657042672470531e+00,6.558162778350538069e+00,0.000000000000000000e+00,-8.461386248837737822e-02,-9.964138167823637371e-01,1.623401828127253168e+02
2.956114623216731907e+00,7.237294707909369684e+00,6.476680068703353221e+00,0.000000000000000000e+00,-8.566774403188669174e-02,-9.963237614513102969e-01,1.635730008989514204e+02
3.164081586818675795e+00,7.138052782201590674e+00,6.369610561051280762e+00,-5.255666436882235754e-02,-8.478588478015335050e-02,-9.950121359925563347e-01,1.648058189851775239e+02
3.371728832493539940e+00,7.028782301985446956e+00,6.241388292705957852e+00,-1.104348983398282386e-01,-8.353945980085268619e-02,-9.903662412889756572e-01,1.660386370714036275e+02
3.577579747742843264e+00,6.910498428590008402e+00,6.094767484526149026e+00,-1.738040182390656052e-01,-8.183895253600294295e-02,-9.813738070132932423e-01,1.672714551576297310e+02
3.780166339961497091e+00,6.784218835616596444e+00,5.932479667017534375e+00,-2.425812171399191197e-01,-7.958466365768641915e-02,-9.668612280991560892e-01,1.685042732438558346e+02
3.978027805646225268e+00,6.650964066873226166e+00,5.757237049042050359e+00,-3.163128822720648881e-01,-7.667341604144640999e-02,-9.455513459253674924e-01,1.697370913300819382e+02
4.169709110426567555e+00,6.511757901172839702e+00,5.571735862698612429e+00,-3.940560089565795510e-01,-7.301047773421216747e-02,-9.161819316850962069e-01,1.709699094163080417e+02
4.353759578578359601e+00,6.367627724094085728e+00,5.378659688500246894e+00,-4.742973052129990097e-01,-6.852690687610210607e-02,-8.776936420538098416e-01,1.722027275025341453e+02
4.528731490690125483e+00,6.219604906811432521e+00,5.180682764948357111e+00,-5.549619672217338540e-01,-6.320018580783541562e-02,-8.294714892334988932e-01,1.734355455887602488e+02
4.693178688162022105e+00,6.068725192109475586e+00,4.980473286585837656e+00,-6.335593324383839153e-01,-5.707284259212842131e-02,-7.715861992795641777e-01,1.746683636749863524e+02
4.845655183224947038e+00,5.916029087704354872e+00,4.780696694596461960e+00,-7.074746234018439717e-01,-5.026151212188406658e-02,-7.049492447273353335e-01,1.759011817612124560e+02
4.984713773174324736e+00,5.762562267003294991e+00,4.584018964008643948e+00,-7.743502955688758016e-01,-4.295006210274778663e-02,-6.312977997092696913e-01,1.771339998474385595e+02
5.108904657518622550e+00,5.609375977441414030e+00,4.393109891557479330e+00,-8.324429515976105032e-01,-3.536599144165583630e-02,-5.529809933305186442e-01,1.783668179336646631e+02
5.216774056746836585e+00,5.457527456543039612e+00,4.210646388260006034e+00,-8.808378536968266559e-01,-2.774671189544122493e-02,-4.726042694197325478e-01,1.795996360198907666e+02
5.306862831422463955e+00,5.308080355863041611e+00,4.039315780764282771e+00,-9.194640224134469353e-01,-2.030665441835247456e-02,-3.926493999404788160e-01,1.808324541061168702e+02
5.377705100313542097e+00,5.162105172971864775e+00,3.881819125543599203e+00,-9.489386486293622802e-01,-1.321455022733709732e-02,-3.151837825773542989e-01,1.820652721923429738e+02
5.427826856268923805e+00,5.020679691656293464e+00,3.740874540023168660e+00,-9.703248706042315597e-01,-6.584496227905939358e-03,-2.417153075341033075e-01,1.832980902785690773e+02
5.455744578550548951e+00,4.884889430516321518e+00,3.619220554747527352e+00,-9.848894388975621972e-01,-4.787493358949443932e-04,-1.731836133908700726e-01,1.845309083647951809e+02
5.459963840329858265e+00,4.755828100146932691e+00,3.519619490722760258e+00,-9.939140873733292025e-01,5.082582378747750596e-03,-1.100406937328430867e-01,1.857637264510212844e+02
5.438977910053736764e+00,4.634598069102119133e+00,3.444860866098689467e+00,-9.985766253779915225e-01,1.010963958259073273e-02,-5.236905991339280142e-02,1.869965445372473880e+02
5.391266345381229286e+00,4.522310838847117154e+00,3.397764836392316301e+00,-9.998929495611769136e-01,1.463179475832167287e-02,0.000000000000000000e+00,1.882293626234734916e+02
5.359311087512091731e+00,4.470013629967912294e+00,3.383575023384097324e+00,-9.975231236835860882e-01,1.439229840151440808e-02,-6.885113988354005232e-02,1.888361922814767695e+02
5.278138373042585485e+00,4.370579669988769567e+00,3.372187532861145698e+00,-9.893700975342788473e-01,1.404724050515197657e-02,-1.447393696932597340e-01,1.900690103677028731e+02
5.172737324561535566e+00,4.282715972084250922e+00,3.386679417777671564e+00,-9.737392107196185531e-01,1.357302233353276967e-02,-2.272613530098505086e-01,1.913018284539289766e+02
5.045788576969453487e+00,4.207431799179648380e+00,3.423975952259976197e+00,-9.488946161940448043e-01,1.294748420676014068e-02,-3.153274013000966769e-01,1.925346465401550802e+02
4.899961656960214462e+00,4.145730396328383804e+00,3.481030534661675890e+00,-9.133392733542937680e-01,1.215442958516646695e-02,-4.070179868139857104e-01,1.937674646263811837e+02
4.737917575599221109e+00,4.098609414763304315e+00,3.554820930287899472e+00,-8.661902445528912864e-01,1.118910099521064003e-02,-4.995890954177454879e-01,1.950002827126072873e+02
4.562311416698900501e+00,4.067061323328967859e+00,3.642345544170319638e+00,-8.075504548261087656e-01,1.006290493617453645e-02,-5.897126426102718977e-01,1.962331007988333909e+02
4.375794923434848549e+00,4.052073807464590338e+00,3.740619719296452761e+00,-7.387178234288741541e-01,8.805041804534433428e-03,-6.739573047213949231e-01,1.974659188850594944e+02
4.181019085645897526e+00,4.054630155892654741e+00,3.846672055728194373e+00,-6.620940403154396137e-01,7.459400627180260562e-03,-7.493836394805136747e-01,1.986987369712855980e+02
3.980636730263481748e+00,4.075709635153660138e+00,3.957540746070041582e+00,-5.807826713775896543e-01,6.077214745480941788e-03,-8.140359673186732259e-01,1.999315550575117015e+02
3.777305117320054695e+00,4.116287852112887613e+00,4.070269922767379533e+00,-4.980242089262649219e-01,4.708176027274594590e-03,-8.671503447510494622e-01,2.011643731437378051e+02
3.573688543993167155e+00,4.177337104550563396e+00,4.181906012730207678e+00,-4.166832665644815692e-01,3.393255542386576160e-03,-9.090454010565024445e-01,2.023971912299639087e+02
3.372460959151024618e+00,4.259826719932272354e+00,4.289494094786558520e+00,-3.389389418648645069e-01,2.161113894744667776e-03,-9.408058903271492301e-01,2.036300093161900122e+02
3.176308590876506965e+00,4.364723382441917821e+00,4.390074255473169984e+00,-2.662047992834791210e-01,1.028021299573894610e-03,-9.639159444737130933e-01,2.048628274024161158e+02
3.169482624153042938e+00,4.368840516642745087e+00,4.393482506073773664e+00,-1.992136805227447960e-01,0.000000000000000000e+00,-9.799560752873477387e-01,2.049064463466603740e+02
2.981138441012181506e+00,4.496958494875326728e+00,4.484810446224827274e+00,2.883112816167542336e-01,-5.998126426602973238e-01,-7.463922551831410068e-01,2.061392644328864776e+02
2.803224440938563156e+00,4.648581444549471087e+00,4.566242084133581791e+00,-4.730092251022989698e-03,-8.028414844100014922e-03,-9.999565844487389166e-01,2.073720825191125812e+02
2.655303517463008856e+00,4.801312669524387289e+00,4.630930921625957986e+00,-2.376633227636378454e-03,-1.065847142513173113e-01,-9.943007846232779778e-01,2.084638447408637205e+02
2.499258876066520862e+00,4.993684595997550879e+00,4.697078401368482758e+00,-0.000000000000000000e+00,-2.041017182454783752e-01,-9.789496864544384724e-01,2.096966628270898241e+02
2.354753813862443312e+00,5.207055846978786207e+00,4.757432039930855616e+00,7.692266828111052518e-09,-2.649402078428160223e-01,-9.642648423893744880e-01,2.109294809133159276e+02
2.235254654106202388e+00,5.411751786656640029e+00,4.807631113038968174e+00,1.544663281298313708e-08,-3.254558514844270722e-01,-9.455572371541272059e-01,2.120224816499744236e+02
2.109393660749684596e+00,5.658201425671199658e+00,4.861510428735369871e+00,2.316994939795846409e-08,-3.849020757824480610e-01,-9.229574161673776977e-01,2.132552997362005271e+02
1.992656554367763011e+00,5.919934031038159183e+00,4.912960612205991673e+00,3.076906801780326037e-08,-4.425619179223092003e-01,-8.967379487926928627e-01,2.144881178224266307e+02
1.884152547610240758e+00,6.194659909760757088e+00,4.962664216343934953e+00,3.815637574466796152e-08,-4.977906334313696446e-01,-8.672972300589887329e-01,2.157209359086527343e+02
1.782975637883629672e+00,6.480097986757466622e+00,5.011301640023853921e+00,-3.331464699949183809e-03,-4.956675447032866666e-01,-8.685059507399867096e-01,2.169537539948788378e+02
1.689262102558876988e+00,6.773738991746252047e+00,5.059108216037714101e+00,6.684666035799864681e-02,-4.662993569601420196e-01,-8.820977461129465569e-01,2.181865720811049414e+02
1.664222884293093285e+00,6.857201393230455189e+00,5.072379927685750189e+00,1.388934128451431438e-01,-4.330512275544101675e-01,-8.906038705181149595e-01,2.185327005975281622e+02
1.581674048606056759e+00,7.156036112287197604e+00,5.118405216915626887e+00,2.114659259206784769e-01,-3.962989137103181125e-01,-8.934368098340990105e-01,2.197655186837542658e+02
1.546063872076466117e+00,7.299376383529737389e+00,5.139637749544355927e+00,2.831089273983263821e-01,-3.566485085377727460e-01,-8.903095959188306319e-01,2.203540945959551323e+02
1.484277154084154171e+00,7.597718503554257374e+00,5.180688213273772824e+00,3.523936183149214418e-01,-3.148907726617039549e-01,-8.812845959526538486e-01,2.215869126821812358e+02
1.450911574269352800e+00,7.888695357517320872e+00,5.212989167413473623e+00,4.180567619171786098e-01,-2.719241562077610586e-01,-8.667674411778631960e-01,2.228197307684073394e+02
1.458890239162461633e+00,8.165384420182903114e+00,5.231222873561614861e+00,4.791095088962391002e-01,-2.286633769037966224e-01,-8.474474252413284336e-01,2.240525488546334429e+02
1.517097739554985614e+00,8.420991028918869858e+00,5.230733985819750131e+00,4.471532981814352881e-01,-3.562883718325268734e-01,-8.204343508303340027e-01,2.252853669408595465e+02
1.625557618389521064e+00,8.649189381165276913e+00,5.208354473572409660e+00,4.063117332653365943e-01,-4.796726796448897989e-01,-7.777048899249695557e-01,2.265181850270856501e+02
1.778621336538191988e+00,8.844107694822504584e+00,5.161870896120767327e+00,3.588157289843061926e-01,-5.920765985521623254e-01,-7.215930806766113204e-01,2.277510031133117536e+02
1.969618979432918415e+00,9.000115448664660178e+00,5.089241348729167669e+00,3.222283866461203572e-01,-5.597499309336314566e-01,-7.634454018849240464e-01,2.289838211995378572e+02
2.191304852977664641e+00,9.111885779461571744e+00,4.988547238376922266e+00,2.751765099140470183e-01,-5.166057827150262183e-01,-8.107998234193932729e-01,2.302166392857639607e+02
2.434927705602813575e+00,9.175278366435779986e+00,4.858398111205812775e+00,2.139818196986413568e-01,-4.581481271291691360e-01,-8.627352284719180808e-01,2.314494573719900643e+02
2.689698569698723674e+00,9.188019805280601915e+00,4.698227377401541283e+00,1.342132216601724382e-01,-3.784058280783934025e-01,-9.158579804794534374e-01,2.326822754582161679e+02
2.944145141448936354e+00,9.149455510644928680e+00,4.508144412872902684e+00,3.190118952636257499e-02,-2.708091750051423996e-01,-9.621043107895512758e-01,2.339150935444422714e+02
3.189298428305526567e+00,9.062332717883981203e+00,4.289736737922352106e+00,-9.312056610609320551e-02,-1.316278393234484312e-01,-9.869157370733943058e-01,2.351479116306683750e+02
3.359738950290827475e+00,8.975121365253395211e+00,4.116929981879727585e+00,-2.321487730122089588e-01,3.344839481676257359e-02,-9.721050108260465006e-01,2.360427871810119882e+02
3.581992367405496314e+00,8.829960881857935817e+00,3.863137281098358411e+00,-3.664809109352246685e-01,2.051626215699336453e-01,-9.075241267485067986e-01,2.372756052672380918e+02
3.785946429322692985e+00,8.659617245149217268e+00,3.592514797995731257e+00,-4.767695618152155146e-01,3.587834032266493112e-01,-8.024744572231762296e-01,2.385084233534641953e+02
3.969192831631800811e+00,8.473375245434207059e+00,3.309544168370417871e+00,-5.548845517730586208e-01,4.792679213058615995e-01,-6.800039660257655161e-01,2.397412414396902989e+02
4.129397743728961068e+00,8.280523188015759928e+00,3.018691799460087921e+00,-6.044803031637133728e-01,5.658521106634266662e-01,-5.607271635518027431e-01,2.409740595259164024e+02
4.264299542947478372e+00,8.090356155220568724e+00,2.724414378196743591e+00,-6.337208801472692388e-01,6.254541756094090799e-01,-4.551976716527940114e-01,2.422068776121425060e+02
4.372601040573311337e+00,7.910181635711179382e+00,2.430399644495767397e+00,-6.499759790001725657e-01,6.659991187983259620e-01,-3.660278684507788372e-01,2.434396956983686096e+02
4.454835413328554594e+00,7.743319608752770478e+00,2.138806216228631651e+00,-6.583745620860425030e-01,6.937362434463589800e-01,-2.920153429649643417e-01,2.446725137845947131e+02
4.512431504104982949e+00,7.591094131538705270e+00,1.851030974375745153e+00,-6.621269057880017073e-01,7.129750327387287534e-01,-2.307695025838888137e-01,2.459053318708208167e+02
4.546807230272273515e+00,7.454829104012428154e+00,1.568475508754067382e+00,-6.602033654008425678e-01,7.387097433655894774e-01,-1.357918678351039965e-01,2.471381499570469202e+02
4.559562617738929013e+00,7.338845159622296777e+00,1.300469727745974913e+00,-6.512246928844780403e-01,7.581213793467509454e-01,-3.403488732017431045e-02,2.483346566537498461e+02
4.552850253872464670e+00,7.237407159486471286e+00,1.032146806190529675e+00,-6.345167669231551733e-01,7.695792490419910425e-01,7.166764916858611723e-02,2.495674747399759497e+02
4.527077828010184213e+00,7.155866127077331384e+00,7.732612707447317213e-01,-6.101312118303792165e-01,7.720992287230799000e-01,1.777714413386412562e-01,2.508002928262020532e+02
4.483634295050291207e+00,7.095550508920202226e+00,5.252503395396017627e-01,-5.789204599702979515e-01,7.655932287002991110e-01,2.805674770817710439e-01,2.520331109124281568e+02
4.423904663374508495e+00,7.057791265868403663e+00,2.895646420003077925e-01,-5.423948533966264085e-01,7.508839603513167704e-01,3.768037965519646093e-01,2.532659289986542603e+02
4.349271398894154039e+00,7.043922396152995979e+00,6.767000786143725910e-02,-5.024143593103287397e-01,7.294795710168736624e-01,4.641544646212399372e-01,2.544987470848803639e+02
4.261068416033693573e+00,7.054346141340361420e+00,-1.390381980727509736e-01,-4.858012202915518163e-01,6.959409750787557414e-01,5.288320466553345645e-01,2.557315651711064675e+02
4.160522260736505551e+00,7.087598105110427760e+00,-3.293208280703228130e-01,-4.645451931581536242e-01,6.548479387019264797e-01,5.961308083730380014e-01,2.569643832573325994e+02
4.048781639740671068e+00,7.141282477999332023e+00,-5.020059502679622421e-01,-4.380543012061461905e-01,6.054622973904674188e-01,6.644725996107379018e-01,2.581972013435587314e+02
3.926959633323321430e+00,7.213006697958090463e+00,-6.558999303625393518e-01,-4.059785455138455457e-01,5.474873462906262311e-01,7.317369925281285159e-01,2.594300194297848634e+02
3.796134830092493306e+00,7.300380675471851433e+00,-7.897859595396911070e-01,-3.683609845356565216e-01,4.812863800413927917e-01,7.954078233576621360e-01,2.606628375160109954e+02
3.657352419606037408e+00,7.401016015122690028e+00,-9.024225538222750975e-01,-3.257501219103101087e-01,4.080219427455217818e-01,8.528803857010596179e-01,2.618956556022371274e+02
3.511625243866308921e+00,7.512525233466049279e+00,-9.925420229875355771e-01,-2.792143895713883883e-01,3.296294208090490563e-01,9.018779127982721189e-01,2.631284736884632594e+02
3.359934808696845021e+00,7.632520973085414440e+00,-1.058848907164843700e+00,-2.302256137910364542e-01,2.485882030069201942e-01,9.408507172130606833e-01,2.643612917746893913e+02
3.287768067810102224e+00,7.690428361698573134e+00,-1.082705676979549114e+00,-1.804349071819740524e-01,1.675441557297038253e-01,9.692121543558217533e-01,2.649355959892387773e+02
3.130324063026150849e+00,7.817283070419098756e+00,-1.117829553979737822e+00,-1.314162885008814396e-01,8.891026434832864644e-02,9.873321244698581856e-01,2.661684140754649093e+02
2.969243914226307623e+00,7.946716824328149187e+00,-1.125811142494888006e+00,-8.446276096312631265e-02,1.457391855631604179e-02,9.963200504398171953e-01,2.674012321616910413e+02
2.805408930753590546e+00,8.076335929627688870e+00,-1.105253697572632365e+00,-4.048343425488348107e-02,-5.422631768302282190e-02,9.977076716260482314e-01,2.686340502479171732e+02
2.639673166320736453e+00,8.203743247131860983e+00,-1.054725277985507192e+00,0.000000000000000000e+00,-1.168706797253571267e-01,9.931471412739065752e-01,2.698668683341433052e+02
2.473158673272358499e+00,8.326945575664044696e+00,-9.736712824334187166e-01,4.179811576188185995e-03,-1.198046659016591409e-01,9.927886840629174259e-01,2.710996864203694372e+02
2.307556579591642176e+00,8.444759587435557435e+00,-8.633280677413407433e-01,8.751710161326566040e-03,-1.230103670033562829e-01,9.923667956854218541e-01,2.723325045065955692e+02
2.144842598446307314e+00,8.556400854740642714e+00,-7.258101714493111478e-01,1.377308251189225674e-02,-1.265270045365937956e-01,9.918675412176352069e-01,2.735653225928217012e+02
1.986987228884477430e+00,8.661074589625387787e+00,-5.631986174346911289e-01,1.931297411417051343e-02,-1.304016477503337768e-01,9.912731305219886213e-01,2.747981406790478331e+02
1.835957606193261427e+00,8.757975356726069194e+00,-3.775434823728116007e-01,2.545517322519794470e-02,-1.346912543259499440e-01,9.905605989358640118e-01,2.760309587652739651e+02
1.693719345931767206e+00,8.846286774558151933e+00,-1.708664240318065741e-01,3.230231478200295409e-02,-1.394653727083156325e-01,9.896999395145252842e-01,2.772637768515000971e+02
1.562238383352056115e+00,8.925181205163582376e+00,5.483682547888665132e-02,3.998141382419549694e-02,-1.448097656490593688e-01,9.886514139580658833e-01,2.784965949377262291e+02
1.443058256139190920e+00,8.993955422555430346e+00,2.975274266364894005e-01,4.865143345453110113e-02,-1.508313347531226034e-01,9.873616087733059210e-01,2.797294130239523611e+02
1.336878829907871991e+00,9.052168612870955755e+00,5.550543462736483580e-01,5.851379616767916209e-02,-1.576649102142104741e-01,9.857575319241503875e-01,2.809622311101784931e+02
1.243984249936884501e+00,9.099509625762497222e+00,8.252182765768921735e-01,6.982722809017390120e-02,-1.654827568111188474e-01,9.837375744655861842e-01,2.821950491964046250e+02
1.164668647448344529e+00,9.135661972518947849e+00,1.105835494547392939e+00,8.292909948631485562e-02,-1.745080992435989742e-01,9.811573205948040943e-01,2.834278672826307570e+02
1.099236376574239449e+00,9.160303663947507502e+00,1.394735168884492227e+00,9.826669018573308545e-02,-1.850346882669259563e-01,9.778066382152980074e-01,2.846606853688568890e+02
1.048002259809428960e+00,9.173107045172729457e+00,1.689756682768170037e+00,1.164439018149161509e-01,-1.974555709180115248e-01,9.733715196386014679e-01,2.858935034550830210e+02
1.011291842163503540e+00,9.173738627254717670e+00,1.988746969238553985e+00,1.382924092308152053e-01,-2.123060081634096929e-01,9.673682692991614207e-01,2.871263215413091530e+02
9.894416542308354101e-01,9.161858915526323699e+00,2.289557855886234616e+00,1.649818812916402366e-01,-2.303280724657771616e-01,9.590255251450144902e-01,2.883591396275352849e+02
9.827994844049847689e-01,9.137122234546900756e+00,2.590043415578547226e+00,1.981923368468960778e-01,-2.525674071432432166e-01,9.470636211280135663e-01,2.895919577137614169e+02
9.910811263470081789e-01,9.099128920299200729e+00,2.887946203161311232e+00,2.403807817703439431e-01,-2.805123059383869966e-01,9.292631091206662308e-01,2.908247757999875489e+02
1.012725861211329903e+00,9.047380969152094110e+00,3.180783354631627535e+00,2.951661487666934480e-01,-3.162641717825609988e-01,9.015841160251931719e-01,2.920575938862136809e+02
1.045537460694534015e+00,8.981334653168406845e+00,3.465954641897362354e+00,3.677396395634197068e-01,-3.626121501946094616e-01,8.563176898937729931e-01,2.932904119724398129e+02
1.087325244643710720e+00,8.900449651760084180e+00,3.740850382791789830e+00,4.645791783257277041e-01,-4.223847911210101280e-01,7.783041020679848376e-01,2.945232300586659449e+02
1.135901938560268665e+00,8.804188826571731852e+00,4.002848222633913267e+00,5.892097913780619534e-01,-4.947120296592400490e-01,6.388206551565596136e-01,2.957560481448920768e+02
1.189081532238138950e+00,8.692018006244799366e+00,4.249309900161524212e+00,7.251302812877216120e-01,-5.629804440973038560e-01,3.965338506654786932e-01,2.969888662311182088e+02
1.218312158121396704e+00,8.627025548574474456e+00,4.374007439191714752e+00,8.112091404618372303e-01,-5.829751272352355906e-01,4.560407280307423455e-02,2.976422443281952610e+02
1.273770884192789055e+00,8.493538939159529733e+00,4.596034010365663391e+00,7.910511882697803809e-01,-5.266227694613708765e-01,-3.112980504625819655e-01,2.988750624144213930e+02
1.328291254719727865e+00,8.342817893454137490e+00,4.795691219456201360e+00,7.014401922593784811e-01,-4.328130730917284508e-01,-5.662636315745699367e-01,3.001078805006475250e+02
1.380484799511606742e+00,8.174976575297755232e+00,4.971165767410404612e+00,6.039529003339406676e-01,-3.455153682641649571e-01,-7.182339622097382303e-01,3.013406985868736570e+02
1.430585263012282837e+00,7.991402863535671308e+00,5.122418202244900520e+00,5.225773573162594277e-01,-2.772138114435190315e-01,-8.062663383555779273e-01,3.025735166730997889e+02
1.479651249093366649e+00,7.794114412163565930e+00,5.250281034999489727e+00,4.591473226424981346e-01,-2.258229099509783122e-01,-8.591785317682805179e-01,3.038063347593259209e+02
1.528259144557404081e+00,7.585093847739079465e+00,5.355643427102517506e+00,4.100613177635448192e-01,-1.869276552248473056e-01,-8.926969067864892748e-01,3.050391528455520529e+02
1.576001468017157459e+00,7.366266716146128601e+00,5.439537782990552905e+00,3.716106187320465937e-01,-1.569212648278120736e-01,-9.150307452159326393e-01,3.062719709317781849e+02
1.621987698984088455e+00,7.139531652310836307e+00,5.503055527289149040e+00,3.409625440409708164e-01,-1.332686917305339058e-01,-9.305826128644038020e-01,3.075047890180043169e+02
1.665345010828543248e+00,6.906787833073036786e+00,5.547262954782961053e+00,3.160969264437343829e-01,-1.142407109964025669e-01,-9.418236528373349348e-01,3.087376071042304488e+02
1.705217412648093012e+00,6.669935634997179008e+00,5.573202545442132561e+00,2.955883585069145614e-01,-9.865125257569404282e-02,-9.502081101950428099e-01,3.099704251904565808e+02
1.740764914578402989e+00,6.430877296065530047e+00,5.581894250079010966e+00,2.784222822445922008e-01,-8.567269517161150982e-02,-9.566301385863529294e-01,3.112032432766827128e+02
1.771162715759157402e+00,6.191517581414148097e+00,5.574336748220546589e+00,2.638653107507551998e-01,-7.471556873075337057e-02,-9.616614173250621622e-01,3.124360613629088448e+02
1.795600414190736238e+00,5.953764453276641611e+00,5.551508679747615638e+00,2.513780159924413060e-01,-6.535126687934465772e-02,-9.656802291612729405e-01,3.136688794491349768e+02
1.813281237740621998e+00,5.719529745305362844e+00,5.514369851820134727e+00,2.405567129930282766e-01,-5.726199484835878262e-02,-9.689445452552876148e-01,3.149016975353611087e+02
1.823421295581238111e+00,5.490729841444315085e+00,5.463862422576474920e+00,2.310943047797474337e-01,-5.020783121004648158e-02,-9.716350117114700424e-01,3.161345156215872407e+02
1.825248849363073189e+00,5.269286359532666886e+00,5.400912063067035973e+00,2.227535875612741689e-01,-4.400464090178204252e-02,-9.738811173894310613e-01,3.173673337078133727e+02
1.818003603448188565e+00,5.057126839822347009e+00,5.326429098854943867e+00,2.153487617956201527e-01,-3.850897715201660743e-02,-9.757776229611943020e-01,3.186001517940395047e+02
1.800936013550040959e+00,4.856185438597764303e+00,5.241309632691660170e+00,2.087324173100419122e-01,-3.360756653095590962e-02,-9.773951654452635029e-01,3.198329698802656367e+02
1.773306613145957833e+00,4.668403627090239816e+00,5.146436649652126327e+00,2.027862253057638453e-01,-2.920985553657677938e-02,-9.787872757477860119e-01,3.210657879664917687e+02
1.757430939496749112e+00,4.585798165836365570e+00,5.100070057344499475e+00,1.974141799899906125e-01,-2.524263953079544306e-02,-9.799951278901328777e-01,3.216346291374227917e+02
1.715711551987971539e+00,4.416955632353739780e+00,4.994614305400417287e+00,1.925376210554926304e-01,-2.164613259765548262e-02,-9.810508189802689127e-01,3.228674472236489237e+02
1.661649546517568465e+00,4.266094472631211332e+00,4.881563483526240255e+00,1.880915185999089412e-01,-1.837105076036049667e-02,-9.819796765334506405e-01,3.241002653098750557e+02
1.594712727871585800e+00,4.135156605187367163e+00,4.761108760122853667e+00,1.840216656673749063e-01,-1.537641874719230389e-02,-9.828019089885388082e-01,3.253330833961011876e+02
1.514725262757264046e+00,4.026035714316541281e+00,4.632117424260608907e+00,2.288068544296932294e-01,5.528480951101116120e-02,-9.719007218864076370e-01,3.265659014823273196e+02
1.434686891653515373e+00,3.948808951781711762e+00,4.511464946933721798e+00,2.725827207498267013e-01,1.265775863444774940e-01,-9.537697704288117251e-01,3.276437278713859200e+02
1.331586691251881671e+00,3.883027009687732178e+00,4.362763152464158800e+00,3.143611778524788014e-01,1.969428384439655955e-01,-9.286498631049466823e-01,3.288765459576120520e+02
1.243529731630836688e+00,3.848452861676107783e+00,4.238864334287643310e+00,3.532833449224508371e-01,2.648814910786053689e-01,-8.972339014350602104e-01,3.298345730662032906e+02
1.121616171102752135e+00,3.824504852369649210e+00,4.068229451063856139e+00,5.397217222416242910e-01,1.595213015551515956e-01,-8.265914449658218199e-01,3.310673911524294226e+02
9.912513371499949155e-01,3.823847692978298518e+00,3.884559731422588591e+00,7.352213771908499007e-01,1.531373163970232640e-02,-6.776540534408814764e-01,3.323002092386555546e+02
8.550781410430996488e-01,3.843485066326645327e+00,3.689252558981170882e+00,8.804783949297404488e-01,-1.437436543386942933e-01,-4.517693636130123425e-01,3.335330273248816866e+02
7.157030423493957461e-01,3.880417797827867776e+00,3.483690965250075156e+00,9.383815805090084394e-01,-2.770138504552411840e-01,-2.066478550998692709e-01,3.347658454111078186e+02
5.756986037703322179e-01,3.931642848658259748e+00,3.269245335282927822e+00,9.302570451933813711e-01,-3.669084761464080913e-01,0.000000000000000000e+00,3.359986634973339505e+02
4.376060019900719911e-01,3.994152297208467761e+00,3.047275097728663340e+00,9.267400746638656539e-01,-3.755983429144561514e-01,8.872362251818389015e-03,3.372314815835600825e+02
3.039374969122194403e-01,4.064932308594311650e+00,2.819130401371724659e+00,9.230649493537126382e-01,-3.842342525351729043e-01,1.775213940247825917e-02,3.384642996697862145e+02
1.771788616162437990e-01,4.140962091995874061e+00,2.586153780227612664e+00,9.192331186543745147e-01,-3.928117312974441222e-01,2.663488922554762064e-02,3.396971177560123465e+02
5.979177531948876717e-02,4.219212845579668247e+00,2.349681809246868536e+00,9.152462705944975907e-01,-4.013263844036089045e-01,3.551615610381363142e-02,3.409299358422384785e+02
-4.578381840701137989e-02,4.296646688744768738e+00,2.111046752669882398e+00,9.111063282012106246e-01,-4.097739071994867532e-01,4.439148218041873151e-02,3.421627539284646105e+02
-1.371273859565617093e-01,4.370215581419722994e+00,1.871578207065377697e+00,9.068154448733288797e-01,-4.181500960464939465e-01,5.325641853800040793e-02,3.433955720146907424e+02
-2.118355083622248392e-01,4.436860230123365945e+00,1.632604741079659583e+00,9.023759987923748449e-01,-4.264508587718529586e-01,6.210653634049398408e-02,3.446283901009168744e+02
-2.675196141869020106e-01,4.493508980488896576e+00,1.395455533919149449e+00,8.977905864051844986e-01,-4.346722246363473596e-01,7.093743787256295841e-02,3.458612081871430064e+02
-3.026061190016896552e-01,4.538084849212053129e+00,1.162277981646669067e+00,8.968817286629359176e-01,-4.238790021784927253e-01,1.262131383919644911e-01,3.470940262733691384e+02
-3.171236077903328843e-01,4.570517243278960251e+00,9.357797693318153920e-01,8.927524568173624830e-01,-4.108281116333032390e-01,1.849684122718724677e-01,3.483268443595952704e+02
-3.118799150687372457e-01,4.591740226614628995e+00,7.173397000646470900e-01,8.847767330584227485e-01,-3.952763921827607829e-01,2.468333575946427272e-01,3.495596624458214023e+02
-3.106034439517149082e-01,4.593085768652051648e+00,6.990984940104438827e-01,8.723478621562353874e-01,-3.770315731694837136e-01,3.112176091174629344e-01,3.496645986742622654e+02
-2.862633659984442080e-01,4.603995395170813687e+00,4.891161086577775485e-01,8.549397638470633831e-01,-3.559855173780508975e-01,3.772960530010998625e-01,3.508974167604883974e+02
-2.437538550545240157e-01,4.605644150034073903e+00,2.878743509367558961e-01,8.321789135851364039e-01,-3.321474898548370525e-01,4.440228606360182018e-01,3.521302348467145293e+02
-1.837965890842115924e-01,4.598963847944311567e+00,9.570662729490166110e-02,8.039155847109622499e-01,-3.056703053732236497e-01,5.101817294571336925e-01,3.533630529329406613e+02
-1.070863761612619036e-01,4.584885981555147261e+00,-8.704246510904802003e-02,7.702784421291651862e-01,-2.768613196056202153e-01,5.744727419967817772e-01,3.545958710191667933e+02
-1.429184665275926892e-02,4.564341971091089079e+00,-2.600167134241059275e-01,7.316962879753561300e-01,-2.461721074807871057e-01,6.356255467345161003e-01,3.558286891053929253e+02
9.394388315583911131e-02,4.538263416680959672e+00,-4.228478498006292274e-01,6.888767441992185159e-01,-2.141655292627155371e-01,6.925185610343634890e-01,3.570615071916190573e+02
2.170025753625391685e-01,4.507582353387522112e+00,-5.751550972169596765e-01,6.427427824005538248e-01,-1.814652447856874573e-01,7.442795715367073184e-01,3.582943252778451892e+02
3.538377248810966047e-01,4.473306723930599027e+00,-7.166602727805699846e-01,5.943399497693353517e-01,-1.486978961454431258e-01,7.903473665358181632e-01,3.595271433640713212e+02
5.025220278856021849e-01,4.436598326838391948e+00,-8.473030175584036483e-01,5.447345949468782589e-01,-1.164397726842219261e-01,8.304854004769182119e-01,3.607599614502974532e+02
6.606995995990955217e-01,4.398701615582083946e+00,-9.671251492401882199e-01,4.949234062179146409e-01,-8.517728940911220570e-02,8.647517859747809732e-01,3.619927795365235852e+02
8.260367704576550008e-01,4.360870088769851272e+00,-1.076155140806392518e+00,4.457681567288107050e-01,-5.528560204832519420e-02,8.934395629547376982e-01,3.632255976227497172e+02
9.962198621572144752e-01,4.324366685056880932e+00,-1.174408155638801965e+00,3.979605121712309623e-01,-2.702456886421474025e-02,9.170044184354374517e-01,3.644584157089758492e+02
1.102234658417153401e+00,4.302834328047937973e+00,-1.230233590301590407e+00,3.520140075390099099e-01,-5.478630810373027321e-04,9.359945717483463268e-01,3.652166407291738892e+02
1.275378390530956585e+00,4.270296558960936295e+00,-1.312514926183290687e+00,2.672204872815426846e-01,-4.309952321797719255e-04,9.636353176488109407e-01,3.664494588154000212e+02
1.449145919080629730e+00,4.242205395211843921e+00,-1.380042102924417424e+00,1.788580277785865591e-01,-3.086974169559716236e-04,9.838748449904891613e-01,3.676822769016261532e+02
1.623068573981574891e+00,4.219619129352124354e+00,-1.428848988493236272e+00,8.902578904854802078e-02,-1.838628574390737856e-04,9.960293043273039659e-01,3.689150949878522852e+02
1.796688691289325623e+00,4.203600041119162967e+00,-1.454946363721942637e+00,-7.069497921097834560e-05,-5.956837023416438096e-05,9.999999957269145590e-01,3.701479130740784171e+02
1.968635440754382682e+00,4.195156851535121412e+00,-1.456320508155274362e+00,-3.625803456683791143e-02,-1.036914500637454886e-04,9.993424559065992030e-01,3.713760736830089400e+02
2.138941915103149682e+00,4.195121922376379153e+00,-1.434694373048602145e+00,-7.279094385599120531e-02,-1.481566855746037153e-04,9.973472096226821959e-01,3.726088917692350719e+02
2.305406473770218234e+00,4.204405818638910830e+00,-1.393582935451879834e+00,-1.095258605302719956e-01,-1.927870726011053398e-04,9.939839277917164040e-01,3.738417098554612039e+02
2.466488676215881082e+00,4.223866832004550709e+00,-1.336575578192521263e+00,-1.463131565699862524e-01,-2.373991570471680303e-04,9.892382947784456038e-01,3.750745279416873359e+02
2.620651570196332880e+00,4.254373388967774616e+00,-1.267242080168333285e+00,-1.830000663848715681e-01,-2.818066589907935798e-04,9.831128604021716066e-01,3.763073460279134679e+02
2.766360269937752747e+00,4.296804372323114407e+00,-1.189137018841387228e+00,-2.194338041053644772e-01,-3.258242945861017175e-04,9.756273363607528282e-01,3.775401641141395999e+02
2.902080539687969640e+00,4.352049452397663387e+00,-1.105804153984524696e+00,-2.554647245441296066e-01,-3.692716164051723562e-04,9.668183066905928769e-01,3.787729822003657318e+02
3.026277381338450478e+00,4.421009428136455810e+00,-1.020780798086832863e+00,-2.909493766235753398e-01,-4.119766881855084040e-04,9.567383605341438502e-01,3.800058002865918638e+02
3.137413624814821667e+00,4.504596578157602060e+00,-9.376021788076764896e-01,-3.257533052162683296e-01,-4.537794209612198960e-04,9.454546939038982467e-01,3.812386183728179958e+02
3.222166468247595894e+00,4.588054064514472508e+00,-8.698385184291981265e-01,-3.597534765865136319e-01,-4.945344230605766209e-04,9.330472611393385574e-01,3.822989503354738758e+02
3.307380263015488708e+00,4.699066763312097272e+00,-7.988534738973570581e-01,5.194392941761561550e-02,-6.052149264965294151e-01,7.943656091136236386e-01,3.835317684217000078e+02
3.377967174038454701e+00,4.826048969804344502e+00,-7.402989750859303442e-01,2.741955391682599982e-02,-3.194772386944216280e-01,9.471971611122944612e-01,3.847645865079261398e+02
3.435230848344523746e+00,4.968626929533532355e+00,-6.981797051396730902e-01,-4.636159474099297807e-07,-1.156627263298117030e-06,9.999999999992237321e-01,3.859974045941522718e+02
3.472757447787005347e+00,5.091800438716022725e+00,-6.769685515111358853e-01,-8.416117492718791851e-03,-1.074507060082295637e-06,9.999645838554455102e-01,3.869773274367987028e+02
3.510729297693821138e+00,5.258314197511870347e+00,-6.649202810981674761e-01,-1.683835428858661276e-02,-9.922405978317912162e-07,9.998582248618389512e-01,3.882101455230248348e+02
3.538034023090320446e+00,5.438017973636281255e+00,-6.683358284838079033e-01,-2.526538726003323132e-02,-9.098451365459133656e-07,9.996807791519114472e-01,3.894429636092509668e+02
3.555412562480640304e+00,5.629790210633099257e+00,-6.844555573889012923e-01,-3.369542277620612980e-02,-8.273380556244147762e-07,9.994321480136849623e-01,3.906757816954770988e+02
3.563584518773910581e+00,5.832511018341776321e+00,-7.105354991926946528e-01,-4.212666221618823620e-02,-7.447368356525384502e-07,9.991122781399338626e-01,3.919085997817032307e+02
3.563248889305926426e+00,6.045061828640098334e+00,-7.438439688844225017e-01,-5.055730388055833940e-02,-6.620590399541029363e-07,9.987211617983723366e-01,3.931414178679293627e+02
3.555084771874055249e+00,6.266325048789695984e+00,-7.816581961638252585e-01,-5.898554491251971343e-02,-5.793222959578598919e-07,9.982588369210849688e-01,3.943742359541554947e+02
3.539752047462105811e+00,6.495183712347205152e+00,-8.212609675358876204e-01,-6.740958322382777090e-02,-4.965442764231532267e-07,9.977253871127782503e-01,3.956070540403816267e+02
3.517892040308153945e+00,6.730521127600318287e+00,-8.599372752587787216e-01,-7.582761942072094308e-02,-4.137426805714851142e-07,9.971209415777080309e-01,3.968398721266077587e+02
3.490128155945428468e+00,6.971220523484394249e+00,-8.949709690120949412e-01,-8.423785872505461236e-02,-3.309352151709712487e-07,9.964456749654283518e-01,3.980726902128338907e+02
3.457066497824340612e+00,7.216164692931719138e+00,-9.236414061556974531e-01,-9.263851288585431276e-02,-2.481395756208346953e-07,9.956998071357832103e-01,3.993055082990600226e+02
3.419296463101729966e+00,7.464235633602169351e+00,-9.432200964482984062e-01,-1.010278020765426610e-01,-1.653734270830364613e-07,9.948836028438480250e-01,4.005383263852861546e+02
3.377391318162097367e+00,7.714314185940769342e+00,-9.509673370880067367e-01,-1.094039567731541623e-01,-8.265438570788507506e-08,9.939973713458054583e-01,4.017711444715122866e+02
3.331908754414958818e+00,7.965279668504395616e+00,-9.441288339248065098e-01,-1.177652196089313680e-01,0.000000000000000000e+00,9.930414659270077049e-01,4.030039625577384186e+02
3.283572801013645570e+00,8.216136201102710146e+00,-9.211879348298847026e-01,-1.031253650245792797e-01,2.522832707692675754e-03,9.946651669801633844e-01,4.042367806439645506e+02
3.265881368953539532e+00,8.305578568899099068e+00,-9.097510192979563204e-01,-8.844273811912146954e-02,5.048494865194600584e-03,9.960684689184717833e-01,4.046768975542771045e+02
3.215959653730622758e+00,8.555364238825955425e+00,-8.701299321890217930e-01,-7.372709937745662578e-02,7.575292251090500785e-03,9.972496827598880120e-01,4.059097156405032365e+02
3.165960490736202448e+00,8.803423983923748253e+00,-8.183923584955292707e-01,-5.898830223282819363e-02,1.010152378574748211e-02,9.982075632937743581e-01,4.071425337267293685e+02
3.117121575448301485e+00,9.049126274927322910e+00,-7.567331709243829696e-01,-4.423626017267843352e-02,1.262548724104324907e-02,9.989413147717244312e-01,4.083753518129555005e+02
3.070675257738222808e+00,9.291833675384564728e+00,-6.873350061736378525e-01,-2.948091343391125510e-02,1.514548496934790822e-02,9.994505940906460717e-01,4.096081698991816324e+02
3.027849704679396847e+00,9.530902616702579877e+00,-6.123709567085064975e-01,-1.473219554824748562e-02,1.765982960683678757e-02,9.997355114391934805e-01,4.108409879854077644e+02
2.989870056873857873e+00,9.765683166155250561e+00,-5.340072507667495971e-01,-0.000000000000000000e+00,2.016684970649313888e-02,9.997966284064554454e-01,4.120738060716338964e+02
2.957526901896583738e+00,9.995432463590351091e+00,-4.532963199076899818e-01,0.000000000000000000e+00,1.330737916936405342e-02,9.999114529095278758e-01,4.133066241578600284e+02
2.930743145102292946e+00,1.021923045783467110e+01,-3.690684929514053136e-01,0.000000000000000000e+00,6.445666905742728284e-03,9.999792264733003977e-01,4.145394422440861604e+02
2.922894940662443819e+00,1.029188927079133542e+01,-3.403902281929071516e-01,0.000000000000000000e+00,-4.173184742394549077e-04,9.999999129226417871e-01,4.149462620478604435e+02
2.901776381172577857e+00,1.050778296502518216e+01,-2.492971206302548870e-01,0.000000000000000000e+00,-7.280607410177482829e-03,9.999734960266390971e-01,4.161790801340865755e+02
2.885019745633581323e+00,1.071536125038434939e+01,-1.493805433062067034e-01,0.000000000000000000e+00,-1.414323007601318502e-02,9.998999795194601914e-01,4.174118982203127075e+02
