2.095554204574753498e+00,3.820728821978827128e+00,4.668002657762707841e+00,1.384660855333792462e-01,-1.156967823064645323e-02,-9.902995939122171132e-01,4.224145243889390500e+00
2.213386420930138598e+00,3.998353578514713735e+00,4.694068861247763458e+00,1.840216656673749063e-01,-1.537641874719230389e-02,-9.828019089885388082e-01,5.632193658519187629e+00
2.339342487652123381e+00,4.170825691313710060e+00,4.710886266750922147e+00,1.389243435085732448e-01,-6.296935148713374286e-02,-9.882989869234926061e-01,7.040242073148984758e+00
2.436467722140243097e+00,4.291297205946171367e+00,4.715534100152523500e+00,9.282069831725275888e-02,-1.107049788104714771e-01,-9.895093357975308646e-01,8.057456080853278024e+00
2.579318314592800476e+00,4.451895140758348468e+00,4.710893411911004414e+00,4.630811368885613677e-02,-1.579528722539906282e-01,-9.863602023364965721e-01,9.465504495483074265e+00
2.730628076332460186e+00,4.605769957798028891e+00,4.694391011661641855e+00,-0.000000000000000000e+00,-2.041017182454783752e-01,-9.789496864544384724e-01,1.087355291011287051e+01
2.890421475151733421e+00,4.752427914381372354e+00,4.665143337377181787e+00,-6.238320766406241918e-02,-2.028293762116183396e-01,-9.772249380501647487e-01,1.228160132474266675e+01
3.028885193243383789e+00,4.867278586430136222e+00,4.630070077042948817e+00,-1.322012983337015612e-01,-2.004562241695074243e-01,-9.707420455046684715e-01,1.344315804582258345e+01
3.203486635242135616e+00,4.999273291125450491e+00,4.574552322884612998e+00,-2.096349477536219030e-01,-1.966261191528905217e-01,-9.578054906645760980e-01,1.485120646045237969e+01
3.383050891747052535e+00,5.124485563882073436e+00,4.506711669936751541e+00,-2.943014827759590224e-01,-1.909340534457404093e-01,-9.364458470571862536e-01,1.625925487508217770e+01
3.565705232622038423e+00,5.243460852154250951e+00,4.427209983179574593e+00,-3.849825573936534462e-01,-1.829688285357256583e-01,-9.046053494684334062e-01,1.766730328971197395e+01
3.749592010169876310e+00,5.356734074073329133e+00,4.336666164080861030e+00,-4.794030255172136434e-01,-1.723910374153363456e-01,-8.604964086757166397e-01,1.907535170434177019e+01
3.932861689652723758e+00,5.464831499092570155e+00,4.235658430854029710e+00,-5.742070309074202017e-01,-1.590402911709680178e-01,-8.031142331205062268e-01,2.048340011897156643e+01
4.113665922534090136e+00,5.568272642699110264e+00,4.124726448824448610e+00,-6.652798654902866149e-01,-1.430402913264807729e-01,-7.327633831124898967e-01,2.189144853360136267e+01
4.290150636808274243e+00,5.667572181928079544e+00,4.004373318753387423e+00,-7.484398495428730147e-01,-1.248486392740123102e-01,-6.513452301872403316e-01,2.329949694823115891e+01
4.460449118892667819e+00,5.763241898657531337e+00,3.875067430444387728e+00,-8.202957612106760443e-01,-1.052071813053004207e-01,-5.621799650837719931e-01,2.470754536286095515e+01
4.622675061574416766e+00,5.855792657932854084e+00,3.737244188461419814e+00,-8.789055514771916267e-01,-8.499791150990143596e-02,-4.693616799670894957e-01,2.611559377749075139e+01
4.774915552425664345e+00,5.945736428865894041e+00,3.591307616317347406e+00,-9.239581441624082903e-01,-6.506529023335111406e-02,-3.769188982298553592e-01,2.752364219212054763e+01
4.915223976932444394e+00,6.033588355978400486e+00,3.437631845042981471e+00,-9.564798268213562382e-01,-4.607931090536099283e-02,-2.881371860594804102e-01,2.893169060675034387e+01
5.041612810318349958e+00,6.119868889214181706e+00,3.276562491621771933e+00,-9.782964316451362441e-01,-2.847767016199117748e-02,-2.052440355589849053e-01,3.033973902138014012e+01
5.152046271686089085e+00,6.205105981231166190e+00,3.108417932368935155e+00,-9.915097469289197996e-01,-1.247830923404601340e-02,-1.294322739644521714e-01,3.174778743600993636e+01
5.244432813647541991e+00,6.289837361005892191e+00,2.933490475946070486e+00,-9.981313323770792945e-01,1.870091015709872580e-03,-6.107655922487396222e-02,3.315583585063973260e+01
5.316617420062820898e+00,6.374612893240558797e+00,2.752047440333111883e+00,-9.998929794933587578e-01,1.462974913980168157e-02,0.000000000000000000e+00,3.456388426526952884e+01
5.367334337300794012e+00,6.459810239653976716e+00,2.564501149173267436e+00,-9.992111464656739939e-01,1.463223228710098904e-02,3.691859364940189292e-02,3.597193267989932508e+01
5.388732615518152080e+00,6.521570067523104086e+00,2.425366312116405521e+00,-9.969346887827398307e-01,1.461240465189317904e-02,7.686158944460479148e-02,3.698728684783250742e+01
5.398609616287995294e+00,6.607486807530160711e+00,2.227846713553419455e+00,-9.926671341962406414e-01,1.456452280553677606e-02,1.199993140066624303e-01,3.839533526246230366e+01
5.390013255228787159e+00,6.693481643989290575e+00,2.026587414431917811e+00,-9.859425724370065591e-01,1.448181171404529233e-02,1.664557628494045260e-01,3.980338367709209990e+01
5.364258847957362519e+00,6.779361702887823249e+00,1.822434758536587873e+00,-9.762254592636739892e-01,1.435645277026656626e-02,2.162816334071943625e-01,4.121143209172189614e+01
5.322596608403570961e+00,6.864925242059140231e+00,1.616224429457979284e+00,-9.629181050786556062e-01,1.417968210583075463e-02,2.694209708376627543e-01,4.261948050635169238e+01
5.266216236288222774e+00,6.949961326303506048e+00,1.408784529556113441e+00,-9.453796935870556473e-01,1.394205595288608782e-02,3.256729249247642399e-01,4.402752892098148862e+01
5.196251277273790770e+00,7.034249439446874419e+00,1.200938630992161915e+00,-9.229607780754981450e-01,1.363394211164849733e-02,3.846524636041831480e-01,4.543557733561128487e+01
5.113783271576883394e+00,7.117559033361936294e+00,9.935088100693614255e-01,-8.950560150514751401e-01,1.324628023617295536e-02,4.457569584202564772e-01,4.684362575024108111e+01
5.019845706044545608e+00,7.199649013643876216e+00,7.873186760630945802e-01,-8.611746901433695589e-01,1.277160779968455548e-02,5.081486387767680801e-01,4.825167416487087735e+01
4.915427783959842145e+00,7.280267161305232548e+00,5.831964056971854493e-01,-8.210230701744284376e-01,1.220526836788711662e-02,5.707645308403663797e-01,4.965972257950067359e+01
4.801478026160182822e+00,7.359149489528447496e+00,3.819777944460658881e-01,-7.745856245679977325e-01,1.154661590141389978e-02,6.323636500257032722e-01,5.106777099413046983e+01
4.678907716422603613e+00,7.436019534190036140e+00,1.845093359093126495e-01,-7.221862184375822391e-01,1.079993957409507155e-02,6.916143630694931987e-01,5.247581940876026607e+01
4.548594203478395492e+00,7.510587576544883959e+00,-8.348659396129705021e-03,-6.645092173114922618e-01,9.974812758089476178e-03,7.472134923959209418e-01,5.388386782339006231e+01
4.411384071472524759e+00,7.582549796130885866e+00,-1.957188943376076684e-01,-6.025670103817385437e-01,9.085661804881066395e-03,7.980165717259143365e-01,5.529191623801985855e+01
4.305925574114318088e+00,7.633139614419322427e+00,-3.289653620307309012e-01,-5.376142334273203982e-01,8.150549380225330376e-03,8.431515311977765270e-01,5.632806540071910462e+01
4.157388377281326264e+00,7.697491010675869383e+00,-5.030714113427507961e-01,-4.710248652555896753e-01,7.189400501022525855e-03,8.820906352702025943e-01,5.773611381534890086e+01
4.004599400979619972e+00,7.755831597172111458e+00,-6.695905201402391205e-01,-4.041590866479527477e-01,6.222060264921566199e-03,9.146675454207130462e-01,5.914416222997869710e+01
3.848513974727202136e+00,7.806370998704213804e+00,-8.278664113112819134e-01,-3.382474640900167695e-01,5.266587542236591223e-03,9.410424624278825867e-01,6.055221064460849334e+01
3.690063128556741123e+00,7.847284084339700705e+00,-9.772124367342899243e-01,-2.743113324119259566e-01,4.338066117178011015e-03,9.616311528297931677e-01,6.196025905923828958e+01
3.530156801051819393e+00,7.876704439677089553e+00,-1.116909047415472145e+00,-2.131254049644376036e-01,3.448028541254660132e-03,9.770187679148866211e-01,6.336830747386808582e+01
3.369686924967891350e+00,7.892717667373251089e+00,-1.246201142407037610e+00,-1.552175109255571894e-01,2.604424293105238580e-03,9.878768856877743199e-01,6.477635588849788917e+01
3.209530400685685958e+00,7.893354492201198447e+00,-1.364295286739263702e+00,-1.008942469971596395e-01,1.811972146285635750e-03,9.948955059099510168e-01,6.618440430312769251e+01
3.050551967168322776e+00,7.876583646120018045e+00,-1.470356788116203850e+00,-5.028031217946601211e-02,1.072719327404661731e-03,9.987345690824865896e-01,6.759245271775749586e+01
2.893606979546221591e+00,7.840304507971896264e+00,-1.563506621604564328e+00,-3.361546164290865179e-03,3.866612076176547882e-04,9.999942752338614183e-01,6.900050113238729921e+01
2.771271805805425981e+00,7.794911970024557490e+00,-1.626637959783118870e+00,3.997487404944602418e-02,-2.476754376358790768e-04,9.992006545742494472e-01,7.011782687723406582e+01
2.620379487353277970e+00,7.716785980523116706e+00,-1.692380001420873858e+00,7.990643764227363388e-02,-8.327362120236655963e-04,9.968020203499402543e-01,7.152587529186386917e+01
2.473128317974444546e+00,7.618452020817058745e+00,-1.744308108877830055e+00,1.166485428797343071e-01,-1.371546479450316434e-03,9.931723094731795820e-01,7.293392370649367251e+01
2.343040626262990145e+00,7.511870839869037475e+00,-1.778939140431131216e+00,1.281942513642172765e-01,5.364036878662082307e-03,9.917345718616107364e-01,7.421134343521120513e+01
2.203315658160451829e+00,7.377010569743561064e+00,-1.803555642172637086e+00,1.408536550284671396e-01,1.276379996277623649e-02,9.899481467610471430e-01,7.561939184984100848e+01
2.066827346453600445e+00,7.226926733099480415e+00,-1.814877802493658709e+00,1.547863114982243604e-01,2.092542983931893266e-02,9.877263407233880521e-01,7.702744026447081183e+01
1.933170589977078579e+00,7.063768002627430320e+00,-1.813128852644920297e+00,1.701813007768379349e-01,2.996533329783186705e-02,9.849570567625033357e-01,7.843548867910061517e+01
1.801964981681098976e+00,6.889637800213687768e+00,-1.798483865145785288e+00,1.872635175840014488e-01,4.002285699011787212e-02,9.814940376285608004e-01,7.984353709373041852e+01
1.672853118465671418e+00,6.706601835188974903e+00,-1.771070398815119740e+00,2.063012377554620802e-01,5.126547881064296569e-02,9.771446412803377335e-01,8.125158550836022187e+01
1.545499046270212729e+00,6.516695515283686291e+00,-1.730968968744536651e+00,2.276150063095869758e-01,6.389510280532269271e-02,9.716526255510165022e-01,8.265963392299002521e+01
1.419586833878503151e+00,6.321931256533456001e+00,-1.678213342945592101e+00,2.515876279254778969e-01,7.815548467152892698e-02,9.646737198092366627e-01,8.406768233761982856e+01
1.294819269550970375e+00,6.124305718050195857e+00,-1.612790666763884495e+00,2.786744347070335137e-01,9.434053482979412597e-02,9.557407718250507944e-01,8.547573075224963191e+01
1.170916675224465964e+00,5.925806987335202614e+00,-1.534641415518710916e+00,3.094117226307863122e-01,1.128025992841247549e-01,9.442139373539211178e-01,8.688377916687943525e+01
1.047615833627176141e+00,5.728421741662711675e+00,-1.443659175193932054e+00,3.444186477498145660e-01,1.339584296208140290e-01,9.292098440157177119e-01,8.829182758150923860e+01
9.246690242459280062e-01,5.534142411003966977e+00,-1.339690250371238234e+00,3.843828098059298704e-01,1.582877209024133314e-01,9.095025304732351490e-01,8.969987599613904194e+01
8.018431646573497273e-01,5.344974367992259445e+00,-1.222533097961029158e+00,4.300103742079680602e-01,1.863136184867727474e-01,8.833902385921459377e-01,9.110792441076884529e+01
6.789190542962346697e-01,5.162943170549303851e+00,-1.091937584645408688e+00,4.819056133955015309e-01,2.185447925597616414e-01,8.485311741019985199e-01,9.251597282539864864e+01
5.556907182863032313e-01,4.990101883003041472e+00,-9.476040652977734124e-01,5.403218949115545788e-01,2.553435364271843255e-01,8.017804738730209824e-01,9.392402124002845198e+01
4.847443510565592750e-01,4.896652268012061882e+00,-8.566135996140390452e-01,6.047071759346885900e-01,2.966684809282983393e-01,7.391326293682275450e-01,9.473427611143929994e+01
3.623204051240770385e-01,4.744822906195623524e+00,-6.852855683627498973e-01,6.729967102068954432e-01,3.416480075887986523e-01,6.560122460452246784e-01,9.614232452606910329e+01
2.422016947973946732e-01,4.603031366860194318e+00,-5.017537224744167412e-01,7.407912520170788495e-01,3.880357052851855504e-01,5.483216322185341385e-01,9.755037294069890663e+01
1.259688003351556451e-01,4.470487903492568194e+00,-3.070854641959420706e-01,8.010106255643494322e-01,4.318639552596076348e-01,4.145787040846853899e-01,9.895842135532870998e+01
1.496456844271942116e-02,4.346528740202891150e+00,-1.023561202434216388e-01,8.450753448232641851e-01,4.679371596017383172e-01,2.586164655154389869e-01,1.003664697699585133e+02
-8.957650298350240681e-02,4.230564035645369536e+00,1.113715738332152760e-01,8.660914573745286393e-01,4.915837344988321922e-01,9.072496590821345352e-02,1.017745181845883167e+02
-1.863997456302116107e-01,4.122024996465872171e+00,3.330680356654773799e-01,8.622955247596203465e-01,5.008195232516727824e-01,-7.500822027950093673e-02,1.031825665992181200e+02
-2.742255239654644017e-01,4.020361647961427920e+00,5.617330427140017068e-01,8.377259666475563860e-01,4.971031679555721339e-01,-2.260611537017173378e-01,1.045906150138479234e+02
-3.517443603482930392e-01,3.925040641780162431e+00,7.963920470856347134e-01,7.995989985024658520e-01,4.840963633611399253e-01,-3.553760720340817802e-01,1.059986634284777267e+02
-4.176119636997225881e-01,3.835543092061215908e+00,1.036092584942801320e+00,7.550037412360804945e-01,4.657767920935170780e-01,-4.615423389750871741e-01,1.074067118431075301e+02
-4.704441430930407231e-01,3.751362431403274744e+00,1.279900767275171436e+00,7.091205048799331667e-01,4.452696899018745991e-01,-5.467019414758986784e-01,1.088147602577373334e+02
-5.088115872548402141e-01,3.672002277998174691e+00,1.526897839110989308e+00,6.650280586380962200e-01,4.245876168617868096e-01,-6.143802054360747444e-01,1.102228086723671368e+02
-5.312344905238078896e-01,3.596974305179477582e+00,1.776176794494710220e+00,6.242287386918281555e-01,4.048411778039112119e-01,-6.681632304650947374e-01,1.116308570869969401e+02
-5.361770052966036149e-01,3.525796104516150997e+00,2.026839034749354784e+00,5.872495132600806800e-01,3.865460851154771116e-01,-7.111400236646062689e-01,1.130389055016267434e+02
-5.220415004120682045e-01,3.457989033425764802e+00,2.277991057709855216e+00,5.540878923168269798e-01,3.698707725988082395e-01,-7.457762527494805616e-01,1.144469539162565468e+02
-4.871626042673308787e-01,3.393076038086727308e+00,2.528741165734358365e+00,5.244883283529381268e-01,3.547991140486277395e-01,-7.739700136903556738e-01,1.158550023308863501e+02
-4.298010107173474981e-01,3.330579442196315743e+00,2.778196180364037815e+00,4.980967650694254067e-01,3.412267055927182269e-01,-7.971599262492528037e-01,1.172630507455161535e+02
-3.481370249913033899e-01,3.270018691849316372e+00,3.025458151527083750e+00,4.745405476976664594e-01,3.290141501205586794e-01,-8.164318450496925728e-01,1.186710991601459568e+02
-2.402638259588682212e-01,3.210908046499035162e+00,3.269621049162984239e+00,4.534663031693833557e-01,3.180149199882141842e-01,-8.326072438759962724e-01,1.200791475747757602e+02
-1.041804200938497987e-01,3.152754205606587590e+00,3.509767425077425784e+00,4.345554305825928831e-01,3.080889498746590682e-01,-8.463112764912843478e-01,1.214871959894055635e+02
6.053189902350978452e-02,3.095062302962723777e+00,3.744970360368064632e+00,4.175282446744711939e-01,2.991085103971553028e-01,-8.580234634944721162e-01,1.228952444040353669e+02
2.510273095927007536e-01,3.037395760663009092e+00,3.974355845180522095e+00,4.021427279457819304e-01,2.909600538955852134e-01,-8.681148964263907253e-01,1.243032928186651702e+02
4.628692684701476989e-01,2.979426886862878376e+00,4.197154698123733318e+00,3.881910014020746313e-01,2.835440588659404737e-01,-8.768754262221529761e-01,1.257113412332949736e+02
5.584709562639647018e-01,2.955146188373785510e+00,4.286959113173541169e+00,3.754950819623908420e-01,2.767739619749181035e-01,-8.845335592247270950e-01,1.262979886851600924e+02
8.024030493297430455e-01,2.896404555449753726e+00,4.494615703135148799e+00,3.639026773360332645e-01,2.705747486683248715e-01,-8.912710849179051875e-01,1.277060370997898957e+02
1.000378150890467888e+00,2.850424570491333576e+00,4.649304334721546361e+00,3.532833449224508371e-01,2.648814910786053689e-01,-8.972339014350602104e-01,1.287987402270790369e+02
1.263547888686592069e+00,2.791315533396806270e+00,4.840427642831746091e+00,2.657136782167191513e-01,3.526211201874115408e-01,-8.972483417684966600e-01,1.302067886417088403e+02
1.531986817531493461e+00,2.733381017663614632e+00,5.023891407627908201e+00,2.436365914640056807e-01,3.233219463580869757e-01,-9.143872977590072892e-01,1.316148370563386436e+02
1.803163300798707347e+00,2.678005031931939950e+00,5.200358067259117867e+00,2.208052299080539849e-01,2.930217776427085363e-01,-9.302597961173849628e-01,1.330228854709684470e+02
2.074737612582446378e+00,2.626687748743764317e+00,5.370502076912588407e+00,1.973122609516296810e-01,2.618435967419516230e-01,-9.447252524006088947e-01,1.344309338855982503e+02
2.344381602078533078e+00,2.580959566880235645e+00,5.534974596805039226e+00,1.732642039554345703e-01,2.299287693235178842e-01,-9.576597917136658866e-01,1.358389823002280536e+02
2.609770258461693526e+00,2.542386661755617450e+00,5.694405891292037225e+00,1.487792621407722504e-01,1.974341666376649429e-01,-9.689605157079095310e-01,1.372470307148578570e+02
2.868573324990717932e+00,2.512576722023283970e+00,5.849407650989408403e+00,1.239845402705426897e-01,1.645284729975641791e-01,-9.785490357396464667e-01,1.386550791294876603e+02
3.118446932475465783e+00,2.493184893155001802e+00,6.000575246462166668e+00,9.901279275665429702e-02,1.313878700934361932e-01,-9.863740134770573320e-01,1.400631275441174637e+02
3.357025222453463353e+00,2.485919949707595222e+00,6.148489921784420886e+00,7.399889282898883258e-02,9.819135113864452258e-02,-9.924125263324981017e-01,1.414711759587472670e+02
3.581911930533815624e+00,2.492550719022292860e+00,6.293720936052196180e+00,4.907623970700897287e-02,6.511595275567645669e-02,-9.966701738252935483e-01,1.428792243733770704e+02
3.790671900373152159e+00,2.514912780216179922e+00,6.436827660739360191e+00,2.437332334678924198e-02,3.233219600098535124e-02,-9.991799488634601767e-01,1.442872727880068737e+02
3.825705340190810322e+00,2.521822438365396213e+00,6.462820885863032494e+00,1.064529351364108455e-05,0.000000000000000000e+00,-9.999999999433388798e-01,1.445460920444367048e+02
3.996960546145325033e+00,2.575562808034735252e+00,6.602569750854064168e+00,7.097305770121656138e-06,7.904625453571598875e-03,-9.999687579350001743e-01,1.459541404590665081e+02
4.147983477989588330e+00,2.648361070532172512e+00,6.740311880190240856e+00,3.548652857625561774e-06,1.580925078491906763e-02,-9.998750259792604789e-01,1.473621888736963115e+02
4.277622218825864131e+00,2.741319310852794011e+00,6.875583938277483931e+00,0.000000000000000000e+00,2.371239420780988857e-02,-9.997188216498343882e-01,1.487702372883261148e+02
4.385395238284496955e+00,2.854781810282557508e+00,7.007970002000416976e+00,0.000000000000000000e+00,2.283438639637984727e-02,-9.997392614066433758e-01,1.501782857029559182e+02
4.408545414624053471e+00,2.890147919122552089e+00,7.042606842177858262e+00,0.000000000000000000e+00,2.195634403735827189e-02,-9.997589304209856254e-01,1.505557086427764943e+02
4.474486285648423767e+00,3.039246687950456938e+00,7.168442410766648010e+00,0.000000000000000000e+00,2.107826916115311533e-02,-9.997778286045204688e-01,1.519637570574062977e+02
4.521378812922285384e+00,3.205027679758539083e+00,7.290631729368293179e+00,0.000000000000000000e+00,2.020016379850617799e-02,-9.997959558742540720e-01,1.533718054720361010e+02
4.550634721260389703e+00,3.385565891394332283e+00,7.408880206086201348e+00,0.000000000000000000e+00,1.932202998046963702e-02,-9.998133121525407674e-01,1.547798538866659044e+02
4.563587492179872029e+00,3.578981269674527788e+00,7.522878729479130833e+00,0.000000000000000000e+00,1.844386973838255117e-02,-9.998298973670840528e-01,1.561879023012957077e+02
4.561497598901500972e+00,3.783432330911276509e+00,7.632302529681176395e+00,0.000000000000000000e+00,1.756568510384737269e-02,-9.998457114509381460e-01,1.575959507159255111e+02
4.545557427848672560e+00,3.997109888134251943e+00,7.736809981830493399e+00,0.000000000000000000e+00,1.668747810870646955e-02,-9.998607543425092059e-01,1.590039991305553144e+02
4.516895905586342685e+00,4.218230865060250245e+00,7.836041347398132295e+00,0.000000000000000000e+00,1.580925078501861300e-02,-9.998750259855561096e-01,1.604120475451851178e+02
4.476582848908225110e+00,4.445032176059005913e+00,7.929617448779593403e+00,0.000000000000000000e+00,1.493100516503545992e-02,-9.998885263291911185e-01,1.618200959598149211e+02
4.425633054613791195e+00,4.675764651492507085e+00,8.017138272265800225e+00,0.000000000000000000e+00,1.405274328117807163e-02,-9.999012553278815441e-01,1.632281443744447245e+02
4.365010144412087456e+00,4.908686987865749529e+00,8.098181494246322387e+00,0.000000000000000000e+00,1.317446716601335457e-02,-9.999132129414490811e-01,1.646361927890745278e+02
4.295630179342202482e+00,5.142059702219885509e+00,8.172300925214910805e+00,0.000000000000000000e+00,1.229617885223057740e-02,-9.999243991350715843e-01,1.660442412037043312e+02
4.218365057106093552e+00,5.374139070122899042e+00,8.239024865844458034e+00,0.000000000000000000e+00,1.141788037261783767e-02,-9.999348138792831797e-01,1.674522896183341345e+02
4.134045704764653273e+00,5.603171026467463456e+00,8.297854369074540770e+00,0.000000000000000000e+00,1.053957376003852690e-02,-9.999444571499742640e-01,1.688603380329639378e+02
4.043465078348178032e+00,5.827385008070895545e+00,8.348261401808404258e+00,0.000000000000000000e+00,9.661261047407831981e-03,-9.999533289283925042e-01,1.702683864475937412e+02
3.947380980073756707e+00,6.044987716786207166e+00,8.389686899446488155e+00,0.000000000000000000e+00,8.782944267669163738e-03,-9.999614292011421712e-01,1.716764348622235445e+02
3.846518703041189369e+00,6.254156781474830673e+00,8.421538706088869120e+00,0.000000000000000000e+00,7.904625453770684415e-03,-9.999687579601852505e-01,1.730844832768533479e+02
3.741573512492496700e+00,6.453034296758991317e+00,8.443189392817599170e+00,0.000000000000000000e+00,7.026306638641735373e-03,-9.999753152028402203e-01,1.744925316914831512e+02
3.633212971963945215e+00,6.639720215963444971e+00,8.453973946020264307e+00,0.000000000000000000e+00,6.147989855169338526e-03,-9.999811009317829402e-01,1.759005801061129546e+02
3.522079121930314471e+00,6.812265575070797219e+00,8.453187317237750520e+00,0.000000000000000000e+00,5.269677136174661346e-03,-9.999861151550457627e-01,1.773086285207427579e+02
3.408790517836343792e+00,6.968665523848771137e+00,8.440081825509173186e+00,0.000000000000000000e+00,4.391370514389500955e-03,-9.999903578860175335e-01,1.787166769353725613e+02
3.293944133726531831e+00,7.106852139559120651e+00,8.413864402643248752e+00,0.000000000000000000e+00,3.513072022432753468e-03,-9.999938291434428139e-01,1.801247253500023646e+02
3.178117137018432015e+00,7.224686997823833501e+00,8.373693671266732252e+00,0.000000000000000000e+00,2.634783692786919328e-03,-9.999965289514219924e-01,1.815327737646321680e+02
3.061868539313321591e+00,7.319953474301539309e+00,8.318676844884389965e+00,0.000000000000000000e+00,1.756507557774563983e-03,-9.999984573394098408e-01,1.829408221792619713e+02
2.945740727498586065e+00,7.390348749812268636e+00,8.247866438529104727e+00,0.000000000000000000e+00,8.782456495348527070e-04,-9.999996143422152928e-01,1.843488705938917747e+02
2.925093306055967179e+00,7.398751720043377667e+00,8.232269861969751190e+00,0.000000000000000000e+00,-0.000000000000000000e+00,-1.000000000000000000e+00,1.846002254222907482e+02
2.916517919682208415e+00,7.401149861459943580e+00,8.224501915700926702e+00,-0.000000000000000000e+00,-0.000000000000000000e+00,-1.000000000000000000e+00,1.847051604833669671e+02
2.802103056389581681e+00,7.415389578284219851e+00,8.103695368088065010e+00,1.837829892926787570e-02,-2.396671987380465108e-02,-9.995438131802713011e-01,1.861132088979967705e+02
2.688220062796492282e+00,7.403957883979859211e+00,7.967250925431305753e+00,3.699098448174198417e-02,-4.823909798954837541e-02,-9.981506181394801391e-01,1.875212573126265738e+02
2.574643452859934012e+00,7.368854805969467847e+00,7.816382427870640193e+00,5.578927978880812016e-02,-7.275352554693374774e-02,-9.957883714831871069e-01,1.889293057272563772e+02
2.461161920487779486e+00,7.311995206596192176e+00,7.652250572026792597e+00,7.472099939382464973e-02,-9.744194868386886477e-02,-9.924322842825490376e-01,1.903373541418861805e+02
2.347577010310551326e+00,7.235215699526866828e+00,7.475967187431117544e+00,9.373117579719063286e-02,-1.222326855395803324e-01,-9.880656037275350467e-01,1.917454025565159839e+02
2.233701881325759420e+00,7.140281288329716425e+00,7.288599332911548601e+00,1.127627876874550406e-01,-1.470513759241700857e-01,-9.826802361662527741e-01,1.931534509711457872e+02
2.119360157048966187e+00,7.028891750923098591e+00,7.091173228027210840e+00,1.317575698246735705e-01,-1.718220374690032914e-01,-9.762771789988213822e-01,1.945614993857755906e+02
2.004384856281898664e+00,6.902687792702343117e+00,6.884678034036636696e+00,1.506568793440347942e-01,-1.964681953534807846e-01,-9.688667364095350232e-01,1.959695478004053939e+02
1.888617399056202739e+00,6.763256990341925956e+00,6.670069498329209701e+00,1.694025893596617927e-01,-2.209140476333470160e-01,-9.604685035317362951e-01,1.973775962150351972e+02
1.771906682735388205e+00,6.612139547539933382e+00,6.448273475746894690e+00,1.879379785612635967e-01,-2.450856253433647824e-01,-9.511111146781735526e-01,1.987856446296650006e+02
1.654108223658516064e+00,6.450833883317246276e+00,6.220189339771427406e+00,2.062085852508718231e-01,-2.689119062271171368e-01,-9.408317628875696448e-01,2.001936930442948039e+02
1.535083360087015514e+00,6.280802072897963662e+00,5.986693296145274346e+00,2.241629960183720294e-01,-2.923258432307547783e-01,-9.296755093017646798e-01,2.016017414589246073e+02
1.414698512574911415e+00,6.103475160684290302e+00,5.748641611134273077e+00,2.417535428615569248e-01,-3.152652736013351054e-01,-9.176944108879385720e-01,2.030097898735544106e+02
1.292824498225260355e+00,5.920258364396814521e+00,5.506873766326012110e+00,2.589368876979780132e-01,-3.376736811353776013e-01,-9.049465029811255556e-01,2.044178382881842140e+02
1.169335895621598231e+00,5.732536189074919797e+00,5.262215551587412499e+00,2.756744794329999970e-01,-3.595007922308744441e-01,-8.914946784892875398e-01,2.058258867028140173e+02
1.044110457534807246e+00,5.541677469322501715e+00,5.015482107577029502e+00,2.919328755033458456e-01,-3.807029952048832100e-01,-8.774055080989512367e-01,2.072339351174438207e+02
9.506130262472614056e-01,5.399495553782228008e+00,4.832416365741234010e+00,3.859960931291667730e-01,-4.033478555156986833e-01,-8.296490363641162435e-01,2.082727174895786959e+02
8.231046478786363529e-01,5.206192937834104306e+00,4.583201328971529875e+00,4.860533251705572710e-01,-4.231408663715609531e-01,-7.646593831876838943e-01,2.096807659042084993e+02
6.958517358928504315e-01,5.013719058167923848e+00,4.333021514095171334e+00,5.873715709957199049e-01,-4.377027036810809957e-01,-6.807429623406264785e-01,2.110888143188383026e+02
5.700311261776173088e-01,4.823487830158486034e+00,4.081944084748981183e+00,6.835055141420447455e-01,-4.447629031134119892e-01,-5.787971770417931205e-01,2.124968627334681059e+02
4.468344051993410337e-01,4.636913571616459784e+00,3.830032897409000547e+00,7.677218319088769949e-01,-4.429422215080318082e-01,-4.630392825841104232e-01,2.139049111480979093e+02
3.274723591595985472e-01,4.455416065244737212e+00,3.577348736662892659e+00,8.349962791440789234e-01,-4.323492784216118601e-01,-3.403752565388016849e-01,2.153129595627277126e+02
2.131795281792477348e-01,4.280425611473924086e+00,3.323949539163137512e+00,8.834108909702438339e-01,-4.145503499266486314e-01,-2.184793012869942208e-01,2.167210079773575160e+02
1.052188824378852833e-01,4.113388089416068816e+00,3.069890607087652601e+00,9.141305242446837731e-01,-3.919300591345067919e-01,-1.037121660701468828e-01,2.181290563919873193e+02
4.886637765661009519e-03,3.955770043591929852e+00,2.815224811894725399e+00,9.302592260359704435e-01,-3.669029467487537888e-01,-6.483715412145263470e-06,2.195371048066171227e+02
-8.593828836527772630e-02,3.808723869403704665e+00,2.559983764143950236e+00,9.313739381185655031e-01,-3.611231031310564998e-01,4.618107597827028621e-02,2.209451532212469260e+02
-1.642456576453791006e-01,3.672747034808147237e+00,2.304158904983216960e+00,9.303424390567268665e-01,-3.541125218931253649e-01,9.522220291755138788e-02,2.223532016358767294e+02
-1.917480905849850703e-01,3.617773711723967001e+00,2.191456098784155593e+00,9.267509243352258785e-01,-3.457245253814630881e-01,1.469941386367721314e-01,2.229721842880818485e+02
-2.358932612375158611e-01,3.503835039951569197e+00,1.934626690423528750e+00,9.201719966066520540e-01,-3.358219264297187534e-01,2.012638327915877434e-01,2.243802327027116519e+02
-2.584973904193890171e-01,3.401532473419249580e+00,1.677369383069279962e+00,9.101881608109023691e-01,-3.242885492456563101e-01,2.576712027911045588e-01,2.257882811173414552e+02
-2.557456056402996891e-01,3.311105917151876632e+00,1.419649163443857720e+00,8.964226703214198677e-01,-3.110426836046280008e-01,3.157195671950762672e-01,2.271963295319712586e+02
-2.254712494583432092e-01,3.232817111858544479e+00,1.162278162487403455e+00,8.785758535469390118e-01,-2.960511618422015934e-01,3.747775061768648386e-01,2.286043779466010619e+02
-1.688917657394518601e-01,3.166969080386246915e+00,9.074504541700729732e-01,8.564630127978886120e-01,-2.793420295237397655e-01,4.340957708279614691e-01,2.300124263612308653e+02
-8.886873502815834103e-02,3.113925709673828646e+00,6.575842463532156623e-01,8.300481321828123704e-01,-2.610133139860011942e-01,4.928408954032425515e-01,2.314204747758606686e+02
1.182605640544057840e-02,3.074116283080025713e+00,4.147989837170493188e-01,7.994667441126199758e-01,-2.412354777280899809e-01,5.501439532915604058e-01,2.328285231904904720e+02
1.305007512936200709e-01,3.048036492667031805e+00,1.812401997052755787e-01,7.650321065367060580e-01,-2.202459654743617323e-01,6.051591449034511294e-01,2.342365716051202753e+02
2.645338609080861714e-01,3.036249758279427002e+00,-4.091257854644739927e-02,7.272215610162154897e-01,-1.983357390845336132e-01,6.571238359661979445e-01,2.356446200197500787e+02
4.113649759943118212e-01,3.039388856396616490e+00,-2.494378000389365913e-01,6.866439983101184641e-01,-1.758294463174843725e-01,7.054105367744237798e-01,2.370526684343798820e+02
5.684857166470328460e-01,3.058157863039055790e+00,-4.420637049070383906e-01,6.439934758258908376e-01,-1.530622982153224954e-01,7.495627631884680397e-01,2.384607168490096853e+02
7.334308895911335613e-01,3.093334416366694040e+00,-6.164599544299471656e-01,5.999967873436986565e-01,-1.303573286644077456e-01,7.893103458340831047e-01,2.398687652636394887e+02
9.036273133750970521e-01,3.145628977621566680e+00,-7.710374565092822374e-01,5.553633117669497521e-01,-1.080063096844404852e-01,8.245642661500646176e-01,2.412768136782692920e+02
1.076240988507537022e+00,3.215545159619281002e+00,-9.057509221709100222e-01,5.107438392852148290e-01,-8.625643204849541001e-02,8.553949722569462732e-01,2.426848620928990954e+02
1.248307704577170218e+00,3.303526654672022111e+00,-1.021290287411942277e+00,4.667021558382476454e-01,-6.530341514295556760e-02,8.820003184277195318e-01,2.440929105075288987e+02
1.416864456696781405e+00,3.410102767722030137e+00,-1.118274843879284441e+00,4.237000894791403960e-01,-4.529045778897375363e-02,9.046695576886809587e-01,2.455009589221587021e+02
1.482079049472270427e+00,3.460413529341130445e+00,-1.149960942902733096e+00,3.820943553847508389e-01,-2.631166309469209000e-02,9.237486670996084559e-01,2.460664883978744797e+02
1.636105147821725003e+00,3.604804073729237057e+00,-1.211064140614426021e+00,3.421422461676195126e-01,-8.418307444136425427e-03,9.396104594389912412e-01,2.474745368125042830e+02
1.780067700110970597e+00,3.768737454915788376e+00,-1.254863677609455941e+00,2.594619765062707306e-01,-6.520667167159949901e-03,9.657313102758730006e-01,2.488825852271340864e+02
1.913156527036310450e+00,3.951167195291637846e+00,-1.282185446808482565e+00,1.735041117411606770e-01,-4.543447044839043006e-03,9.848226643908341016e-01,2.502906336417638897e+02
2.035262112047923733e+00,4.150480002086648135e+00,-1.293951613151963498e+00,8.620034926693607991e-02,-2.530982719003683178e-03,9.962746076824071650e-01,2.516986820563936931e+02
2.124624366932250652e+00,4.323484796723774615e+00,-1.291563680510499301e+00,-4.255527487359160349e-04,-5.300205705846807109e-04,9.999997689914997823e-01,2.528333951840220664e+02
2.224374602540236889e+00,4.552048548743531597e+00,-1.274888329800071718e+00,-3.951561296716342929e-04,-4.921619656804654625e-04,9.999998008140965622e-01,2.542414435986518697e+02
2.313690816290554952e+00,4.792884209456028444e+00,-1.246074646891663917e+00,-3.647595088482343635e-04,-4.543033585852909403e-04,9.999998302794651517e-01,2.556494920132816731e+02
2.393458783581934757e+00,5.044289549315446486e+00,-1.206975389829563650e+00,-3.343628864806716871e-04,-4.164447495668811383e-04,9.999998573876052177e-01,2.570575404279114764e+02
2.464517547233885164e+00,5.304595330082888971e+00,-1.159405420863230063e+00,-3.039662627839017045e-04,-3.785861388929603216e-04,9.999998821385163161e-01,2.584655888425412513e+02
2.527662736766007612e+00,5.572159494608755814e+00,-1.105148393060225498e+00,-2.735696379728796393e-04,-3.407275268312528636e-04,9.999999045321982249e-01,2.598736372571710262e+02
2.583649687888712965e+00,5.845361434876326534e+00,-1.045963321932427359e+00,-2.431730122625612304e-04,-3.028689136494829210e-04,9.999999245686508331e-01,2.612816856718008012e+02
2.633196374257166017e+00,6.122596318611587485e+00,-9.835910662882061395e-01,-2.127763858679017556e-04,-2.650102996153749758e-04,9.999999422478736966e-01,2.626897340864305761e+02
2.676986162711127992e+00,6.402269454900999968e+00,-9.197607421899295366e-01,-1.823797590038567912e-04,-2.271516849966532658e-04,9.999999575698668153e-01,2.640977825010603510e+02
2.715670402437395214e+00,6.682790679330905093e+00,-8.561960936473853589e-01,-1.519831318853818319e-04,-1.892930700610422729e-04,9.999999705346301893e-01,2.655058309156901259e+02
2.749870857745090547e+00,6.962568739168396803e+00,-7.946218435183253215e-01,-1.215865047274324403e-04,-1.514344550762663165e-04,9.999999811421637075e-01,2.669138793303199009e+02
2.780181993432974341e+00,7.240005659042227038e+00,-7.367700480151561093e-01,-9.118987774496405704e-05,-1.135758403100497430e-04,9.999999893924672589e-01,2.683219277449496758e+02
2.807173121049282738e+00,7.513491067453533567e+00,-6.843864782300487226e-01,-6.079325115293218365e-05,-7.571722603011697998e-05,9.999999952855411767e-01,2.697299761595794507e+02
2.831390413695660246e+00,7.781396464250084577e+00,-6.392370521908512515e-01,-3.039662516629236579e-05,-3.785861250419229255e-05,9.999999988213853497e-01,2.711380245742092256e+02
2.853358796405130793e+00,8.042069408934187535e+00,-6.031143411455816006e-01,-0.000000000000000000e+00,0.000000000000000000e+00,1.000000000000000000e+00,2.725460729888390006e+02
2.871422467625300179e+00,8.267851251905760535e+00,-5.798923393977226670e-01,0.000000000000000000e+00,-2.321952272133916487e-03,9.999973042651895128e-01,2.738085734210030182e+02
2.890145102331902471e+00,8.509169530725971597e+00,-5.641716991808747306e-01,0.000000000000000000e+00,-4.644017226101077381e-03,9.999892164938597450e-01,2.752166218356327931e+02
2.907861811943312613e+00,8.738298363481272091e+00,-5.579503257841943453e-01,0.000000000000000000e+00,-6.966157305595188642e-03,9.999757360318267674e-01,2.766246702502625681e+02
2.924943855484416044e+00,8.953489174759109659e+00,-5.605627612913073321e-01,0.000000000000000000e+00,-9.288334945803222720e-03,9.999568624865448063e-01,2.780327186648923430e+02
2.941748299488164964e+00,9.152940000005219900e+00,-5.713760947547578128e-01,0.000000000000000000e+00,-1.161051257644296099e-02,9.999325957271880672e-01,2.794407670795221179e+02
2.958618968446116604e+00,9.334788983472792623e+00,-5.897876303217791660e-01,0.000000000000000000e+00,-1.393265262480172968e-02,9.999029358846970306e-01,2.808488154941518928e+02
2.975887302015763236e+00,9.497107651120678895e+00,-6.152226666833334745e-01,0.000000000000000000e+00,-1.625471751877585400e-02,9.998678833517880005e-01,2.822568639087816678e+02
2.993873120593734338e+00,9.637893934458377387e+00,-6.471323796651121674e-01,0.000000000000000000e+00,-1.857666968991010178e-02,9.998274387829291232e-01,2.836649123234114427e+02
3.012885300360603757e+00,9.755064920415598806e+00,-6.849918001589002658e-01,0.000000000000000000e+00,-2.089847157643675082e-02,9.997816030942801024e-01,2.850729607380412176e+02
3.033222358397257068e+00,9.846449301306254398e+00,-7.282978799442987317e-01,0.000000000000000000e+00,-2.322008562631348166e-02,9.997303774635972751e-01,2.864810091526709925e+02
3.055172947962373708e+00,9.909779497857277519e+00,-7.765676382746621309e-01,0.000000000000000000e+00,-2.554147430025966586e-02,9.996737633301021608e-01,2.878890575673007675e+02
3.079016263502626138e+00,9.942683427077632530e+00,-8.293363823986462657e-01,0.000000000000000000e+00,-2.786260007479053613e-02,9.996117623943168162e-01,2.892971059819305424e+02
3.097576564180593017e+00,9.943560154575447285e+00,-8.700905073283154989e-01,0.000000000000000000e+00,-3.677659046329879999e-02,9.993235123791968100e-01,2.903083160934594389e+02
3.125212491351928801e+00,9.913790833714337225e+00,-9.301105350247357295e-01,0.000000000000000000e+00,-4.569333770623251745e-02,9.989555139690977636e-01,2.917163645080892138e+02
3.154250237516490696e+00,9.854788258088259312e+00,-9.925235759712083272e-01,0.000000000000000000e+00,-5.461071023353653020e-02,9.985077217166568042e-01,2.931244129227189887e+02
3.184298528403460615e+00,9.768543708066889764e+00,-1.056403254324817187e+00,0.000000000000000000e+00,-6.352657296410228749e-02,9.979801473613774121e-01,2.945324613373487637e+02
3.214982790544028468e+00,9.656951323543351506e+00,-1.120828597866247334e+00,0.000000000000000000e+00,-7.243878985593504849e-02,9.973728599296290964e-01,2.959405097519785386e+02
3.245943135109357502e+00,9.521814930203003513e+00,-1.184880644802497551e+00,0.000000000000000000e+00,-8.134522646230843423e-02,9.966859857205757622e-01,2.973485581666083135e+02
3.276832440706917371e+00,9.364854548325221018e+00,-1.247639057976751564e+00,0.000000000000000000e+00,-9.024375248677697636e-02,9.959197081778757843e-01,2.987566065812380884e+02
3.307314525972711916e+00,9.187712607309091339e+00,-1.308178734010934097e+00,0.000000000000000000e+00,-9.913224432991428470e-02,9.950742676474526593e-01,3.001646549958678634e+02
3.337062403281703116e+00,8.991959888095930609e+00,-1.365566394887848922e+00,0.000000000000000000e+00,-1.080085876206762080e-01,9.941499610220717598e-01,3.015727034104976383e+02
3.365756605344679908e+00,8.779101214721793056e+00,-1.418857149415063468e+00,0.000000000000000000e+00,-1.168706797253571267e-01,9.931471412739065752e-01,3.029807518251274132e+02
3.393083576869185602e+00,8.550580915368184876e+00,-1.467091011901643371e+00,-3.937569398339047649e-02,-7.815319118257078868e-02,9.961634571852687747e-01,3.043888002397571881e+02
3.418734123836968397e+00,8.307788072485990938e+00,-1.509289365221387902e+00,-7.875138647958604410e-02,-3.907659485333631749e-02,9.961281237181345283e-01,3.057968486543869631e+02
3.442401913292416182e+00,8.052061580843941968e+00,-1.544451355231291068e+00,-1.177652196089313680e-01,0.000000000000000000e+00,9.930414659270077049e-01,3.072048970690167380e+02
3.445225157816507622e+00,8.017721335861587306e+00,-1.547993547881922893e+00,-1.366816616918554994e-01,-3.812533655664309442e-05,9.906150220462094369e-01,3.073871673842118639e+02
3.465023891373207654e+00,7.743707880937519050e+00,-1.567307861492025722e+00,-1.556250852004110730e-01,-7.639191051044277945e-05,9.878161909083292835e-01,3.087952157988416388e+02
3.482259558381317177e+00,7.459752548848639364e+00,-1.578584689532595231e+00,-1.745744565366746937e-01,-1.147582009112319343e-04,9.846439691357886659e-01,3.102032642134714138e+02
3.496711386879464367e+00,7.167220205923072740e+00,-1.581823808891263283e+00,-1.935085099319860946e-01,-1.531819359629899555e-04,9.810985848115350016e-01,3.116113126281011887e+02
3.508157256806875512e+00,6.867445798816368630e+00,-1.576995382607901286e+00,-2.124058637905806013e-01,-1.916203199855712007e-04,9.771815145145912318e-01,3.130193610427309636e+02
3.516372691477004597e+00,6.561739250451256389e+00,-1.564039849944643068e+00,-2.312451396377466495e-01,-2.300302682250006598e-04,9.728954889812135853e-01,3.144274094573607385e+02
3.521129872588342646e+00,6.251390270968049556e+00,-1.542867706942573580e+00,-2.500050821523386313e-01,-2.683686465537425681e-04,9.682444871396232999e-01,3.158354578719905135e+02
3.522196674603303101e+00,5.937673101144673282e+00,-1.513359176656810856e+00,-2.686646787237573775e-01,-3.065925129743391755e-04,9.632337184750601189e-01,3.172435062866202884e+02
3.519335714513576630e+00,5.621851205525289608e+00,-1.475363767855000230e+00,-2.872032769699613963e-01,-3.446593577827187973e-04,9.578695938945148702e-01,3.186515547012500633e+02
3.512303413181659728e+00,5.305181932338077999e+00,-1.428699720553428198e+00,-3.056006986861650176e-01,-3.825273392637162061e-04,9.521596854705425272e-01,3.200596031158798382e+02
3.500849064604815375e+00,4.988921157185498778e+00,-1.373153336347626263e+00,-3.238373487627401182e-01,-4.201555118806916066e-04,9.461126756447486574e-01,3.214676515305096132e+02
3.484713909589962633e+00,4.674327927455006915e+00,-1.308478191069903263e+00,-3.418943177132901523e-01,-4.575040440806578141e-04,9.397382966578586849e-01,3.228756999451393881e+02
3.463630210456922320e+00,4.362669124423972811e+00,-1.234394226873510192e+00,-3.597534765865136319e-01,-4.945344230605766209e-04,9.330472611393385574e-01,3.242837483597691630e+02
3.437539893041768657e+00,4.055113736943758873e+00,-1.150713343900644059e+00,-2.939030917580956470e-01,7.136389519959350503e-02,9.531674391821060022e-01,3.256917967743989379e+02
3.412260592179849006e+00,3.805706618353049908e+00,-1.073840203244782687e+00,-2.229058098947400701e-01,1.447677039433593882e-01,9.640307628961525266e-01,3.268526761990001432e+02
3.377564862545598512e+00,3.509115203990776255e+00,-9.711753033820726966e-01,-1.487587070096753061e-01,2.174066921654063678e-01,9.646787948796770040e-01,3.282607246136299182e+02
3.339299052584670857e+00,3.219354677017942201e+00,-8.591794438595111716e-01,-7.382045402127133948e-02,2.869701629610905691e-01,9.550909203516586565e-01,3.296687730282596931e+02
3.298025661813531961e+00,2.937332948256225595e+00,-7.379047095445271376e-01,-4.501745269200441266e-04,3.515007189883057603e-01,9.361875035982907267e-01,3.310768214428894680e+02
3.254302147279021007e+00,2.663982551564438861e+00,-6.073689985572693351e-01,-3.615427780477274439e-04,3.100521025930950691e-01,9.507194975198627329e-01,3.324848698575192429e+02
3.208683171155267466e+00,2.400264081188387522e+00,-4.675560882151997832e-01,-2.716879002084916827e-04,2.677571249383497998e-01,9.634864027221318183e-01,3.338929182721490179e+02
3.161722861117350014e+00,2.147169716938987616e+00,-3.184155752643486603e-01,-1.811252657650163289e-04,2.248551884919673394e-01,9.743921753595314872e-01,3.353009666867787928e+02
3.113977092521499568e+00,1.905726849981050464e+00,-1.598626901766094788e-01,-9.038569296009610690e-05,1.815977560288833947e-01,9.833728930755111231e-01,3.367090151014085677e+02
3.066005801588462365e+00,1.677001822323322289e+00,8.222015171477425194e-03,-0.000000000000000000e+00,1.382410334876689184e-01,9.903986150334931349e-01,3.381170635160383426e+02
3.018221176035648323e+00,1.461816341736087210e+00,1.857252729148258230e-01,4.407398654412067050e-05,1.607322939095029157e-01,9.869980383729609619e-01,3.395251119306681176e+02
2.970732768623203235e+00,1.260464348671458845e+00,3.720328472048758939e-01,9.530229462916849146e-05,1.867844866558108219e-01,9.824009092331896786e-01,3.409331603452978925e+02
2.923498561444765276e+00,1.073002546946076885e+00,5.662951058137302152e-01,1.554415389403474598e-04,2.172445433675595505e-01,9.761171979915876928e-01,3.423412087599276674e+02
2.909381127109391230e+00,1.020448199443414250e+00,6.270749559176169718e-01,2.268075661905315102e-04,2.532162923098336127e-01,9.674096639310509893e-01,3.427659354742498863e+02
2.863013073312156376e+00,8.596227223260233252e-01,8.352110568154748060e-01,3.124707936374686453e-04,2.961413386018286742e-01,9.551440781018956105e-01,3.441739838888796612e+02
2.816876071739043308e+00,7.131795109914066400e-01,1.049316300684116854e+00,4.164934199345444251e-04,3.478873583200119413e-01,9.375362459416461958e-01,3.455820323035094361e+02
2.770937465200453698e+00,5.813765437335486341e-01,1.268643485264920878e+00,5.441485665409031072e-04,4.108025691885138220e-01,9.117241650030197819e-01,3.469900807181392111e+02
2.725167235393057830e+00,4.645255643894204978e-01,1.492464647809930822e+00,7.018947044855428172e-04,4.876042079133187102e-01,8.730645129479545075e-01,3.483981291327689860e+02
2.679538252832021961e+00,3.629932046330127671e-01,1.720068383000675105e+00,8.964265452596450242e-04,5.807384015266228161e-01,8.140897403921462105e-01,3.498061775473987609e+02
2.634026545652814466e+00,2.772023053628283606e-01,1.950757221870238256e+00,1.131129256744136400e-03,6.903837976743945060e-01,7.234424182029177697e-01,3.512142259620285358e+02
2.588611589622458187e+00,2.076334418868431841e-01,2.183845062070351339e+00,1.397152325349807454e-03,8.098973382282071976e-01,5.865699868696357955e-01,3.526222743766583108e+02
2.543284295729039357e+00,1.547150018378334047e-01,2.418585192362588732e+00,1.659582092524928849e-03,9.196030091687313890e-01,3.928454547466374014e-01,3.540303227912880857e+02
2.498053717221513814e+00,1.185589790396928411e-01,2.654098093827588212e+00,1.856211395366383701e-03,9.884131585226506589e-01,1.517760934354722702e-01,3.554383712059178606e+02
2.452936617918052953e+00,9.891890208560247255e-02,2.889437647075731252e+00,1.936179088362757327e-03,9.951022208714478401e-01,-9.883228838416170670e-02,3.568464196205476355e+02
2.407948058859055163e+00,9.545458887355844080e-02,3.123657094037951332e+00,1.905207683879390308e-03,9.485748366206302462e-01,-3.165472310948654888e-01,3.582544680351774105e+02
2.363101509582812731e+00,1.078849401185931062e-01,3.355805549748047678e+00,1.809806774055917628e-03,8.756338885603877076e-01,-4.829720673124431873e-01,3.596625164498071854e+02
2.318409287976472388e+00,1.359869200178372983e-01,3.584924498938986126e+00,1.693250105513635249e-03,7.982373381765648368e-01,-6.023406717505241925e-01,3.610705648644369603e+02
2.273882989761967011e+00,1.795947464715466901e-01,3.810044264522169044e+00,1.579263052949426982e-03,7.270884472683578625e-01,-6.865419839872125563e-01,3.624786132790667352e+02
2.229533910596758872e+00,2.385992879549527768e-01,4.030180434941137868e+00,1.476974652293076579e-03,6.654244132478642770e-01,-7.464637759460348576e-01,3.638866616936965102e+02
2.185373463725547083e+00,3.129476648749939249e-01,4.244330237239765324e+00,1.388311375019155849e-03,6.131523252663315660e-01,-7.899634792900345204e-01,3.652947101083262851e+02
2.141413596091916727e+00,4.026430539761796656e-01,4.451468842480990951e+00,1.312377311594031381e-03,5.690732893224813571e-01,-8.222857587514716959e-01,3.667027585229560600e+02
2.097667205805265667e+00,5.077446950807665838e-01,4.650545589903191335e+00,1.247441594960100675e-03,5.318059725149314465e-01,-8.468653089405158152e-01,3.681108069375858349e+02
2.054148563861564636e+00,6.283681001681760137e-01,4.840480115901955926e+00,1.191718448290751339e-03,5.001040651379278223e-01,-8.659644934058551291e-01,3.695188553522156099e+02
2.010873743034673922e+00,7.646854655212631524e-01,5.020158373575712929e+00,1.143627520444957671e-03,4.729326867746409535e-01,-8.810978185741999980e-01,3.709269037668453848e+02
