2.818376698220803611e+00,6.207682304441514809e+00,-1.448055402085555443e-01,0.000000000000000000e+00,3.957506112840549622e-02,9.992166004108834487e-01,7.927045034033810111e+01
2.824823850129765113e+00,5.685362035789416346e+00,-1.723004755486245154e-01,0.000000000000000000e+00,4.948099502359254442e-02,9.987750653332687634e-01,8.097649693883765565e+01
2.830935365705109508e+00,5.163557475667958307e+00,-2.027624827440284716e-01,0.000000000000000000e+00,5.938596055158471693e-02,9.982350964023283257e-01,8.268254353733721018e+01
2.836996752760123197e+00,4.645967688092770054e+00,-2.332591421353113204e-01,0.000000000000000000e+00,6.928703075216774421e-02,9.975967659177470415e-01,8.438859013583676472e+01
2.843324472417176008e+00,4.136320508775399141e+00,-2.608582651053488743e-01,0.000000000000000000e+00,7.918128038697196114e-02,9.968602333508341795e-01,8.609463673433631925e+01
2.850268878731695210e+00,3.638399780723836408e+00,-2.826083453933740386e-01,0.000000000000000000e+00,8.906579025874654387e-02,9.960257451519940464e-01,8.780068333283587378e+01
2.858217666162333970e+00,3.156072978344051538e+00,-2.955188816197130697e-01,0.000000000000000000e+00,9.893765151577713080e-02,9.950936343442976506e-01,8.950672993133542832e+01
2.867599857131505114e+00,2.693319419698458006e+00,-2.965404398321410673e-01,0.000000000000000000e+00,1.087939699266475407e-01,9.940643199047031198e-01,9.121277652983498285e+01
2.878890368034543457e+00,2.254259270644541235e+00,-2.825443231525489041e-01,0.000000000000000000e+00,1.186318701107082901e-01,9.929383059354875973e-01,9.291882312833453739e+01
2.892615198517174857e+00,1.843183550092601930e+00,-2.503017129835988785e-01,0.000000000000000000e+00,1.284484997098686021e-01,9.917161806294600979e-01,9.462486972683409192e+01
2.909357295716727965e+00,1.464585352631420756e+00,-1.964621427101095330e-01,-0.000000000000000000e+00,1.382410334876689184e-01,9.903986150334931349e-01,9.633091632533364645e+01
2.929559341133587402e+00,1.121295067194553408e+00,-1.189606576178267039e-01,3.483068274768013091e-07,1.671259037828639882e-01,9.859355619332530463e-01,9.803696292383320099e+01
2.953304266337414496e+00,8.126054339168578000e-01,-1.843354522757740047e-02,7.479930920952905805e-07,2.001259205514739070e-01,9.797701852592094474e-01,9.974300952233275552e+01
2.980489875851882964e+00,5.361666431069808114e-01,1.032069198588570075e-01,1.209627673064025039e-06,2.380459268274846274e-01,9.712538992042095698e-01,1.014490561208323101e+02
3.011023239148623798e+00,2.898674027934218800e-01,2.441892242008924796e-01,1.746146009235625326e-06,2.818521360501092810e-01,9.594578538950743196e-01,1.031551027193318646e+02
3.044821877686577416e+00,7.181929790034058403e-02,4.028708049691159254e-01,2.373072298020186785e-06,3.326727277186314335e-01,9.430423406330246117e-01,1.048611493178314191e+02
3.081814912236075177e+00,-1.196572163401509459e-01,5.777270990983881527e-01,3.108273181480968148e-06,3.917510809307208630e-01,9.200712421220166304e-01,1.065671959163309737e+02
3.121944193195137274e+00,-2.860452897861544552e-01,7.673413791356803459e-01,3.970538722200270776e-06,4.602914745619750558e-01,8.877678516536839926e-01,1.082732425148305282e+02
3.165165435644773151e+00,-4.286427135237618202e-01,9.703953080207086135e-01,4.975632046179519154e-06,5.390874239821010772e-01,8.422498140573171366e-01,1.099792891133300827e+02
3.195076014187824498e+00,-5.114341824575334705e-01,1.110080307194381000e+00,6.127634749018120735e-06,6.277702723476326074e-01,7.783986672130362994e-01,1.111024751840584486e+02
3.242644006519539879e+00,-6.210667311193445173e-01,1.330243608252552612e+00,7.403470345748571118e-06,7.235548637138957684e-01,6.902668753034250093e-01,1.128085217825580031e+02
3.293157017371119544e+00,-7.093547892394100884e-01,1.560415671108536628e+00,8.732576828786000256e-06,8.197473934091554781e-01,5.727252490703002019e-01,1.145145683810575576e+02
3.346626357351282444e+00,-7.770190957339068172e-01,1.799548545331239868e+00,9.985828479082285689e-06,9.052760122624142758e-01,4.248238947170280277e-01,1.162206149795571122e+02
3.403082021479439501e+00,-8.246284959314584828e-01,2.046654021532380519e+00,1.100058183702884851e-05,9.673320065258493861e-01,2.535128971663204722e-01,1.179266615780566667e+02
3.462574196431476903e+00,-8.526042839477382396e-01,2.300797043043923740e+00,1.165013344007887044e-05,9.972741219883026753e-01,7.378567257085995312e-02,1.196327081765562212e+02
3.525174900458757143e+00,-8.612234692682768644e-01,2.561089471961150110e+00,1.190805971103013196e-05,9.952791785225457710e-01,-9.705337015109068155e-02,1.213387547750557758e+02
3.590979778327215044e+00,-8.506209927212181610e-01,2.826684167989312435e+00,1.184555307104689116e-05,9.691007327267087135e-01,-2.466652989138096719e-01,1.230448013735553303e+02
3.660110074707145333e+00,-8.207909094516534498e-01,3.096769340617806954e+00,1.157442176316910584e-05,9.288533727487781055e-01,-3.704475830657455449e-01,1.247508479720548848e+02
3.732714810783172243e+00,-7.715865490777931157e-01,3.370563136968847129e+00,1.119517267957359428e-05,8.828861731233944576e-01,-4.695870581502388785e-01,1.264568945705544394e+02
3.808973190457243252e+00,-7.027196558637843760e-01,3.647308429238207861e+00,1.077717708480098422e-05,8.365433358013907306e-01,-5.479007640167461446e-01,1.281629411690539939e+02
3.889097264397612719e+00,-6.137585044329694206e-01,3.926267766975958917e+00,1.036091112240975863e-05,7.926565446755831079e-01,-6.096684361811892661e-01,1.298689877675535342e+02
3.973334882359751408e+00,-5.041249792167314947e-01,4.206718460554565553e+00,9.966904129201095225e-06,7.524384299742802318e-01,-6.586625911637165043e-01,1.315750343660530746e+02
4.061972966688029985e+00,-3.730905984363139805e-01,4.487947763046426175e+00,9.603803488703974386e-06,7.162013778553564247e-01,-6.978936783392265530e-01,1.332810809645526149e+02
4.155341142721101555e+00,-2.197714558957201969e-01,4.769248118388897950e+00,9.273812561001388476e-06,6.838114225871437801e-01,-7.296587820710054295e-01,1.349871275630521552e+02
4.253815764994122617e+00,-4.312204617016522634e-02,5.049912444156626989e+00,8.975917472309716502e-06,6.549424745969774087e-01,-7.556787378828522250e-01,1.366931741615516955e+02
4.357824381683713000e+00,1.580720691460332228e-01,5.329229417491363918e+00,8.707671023945906359e-06,6.292080808856729268e-01,-7.772368949505322755e-01,1.383992207600512359e+02
4.467850683708678439e+00,3.852028046723287580e-01,5.606478732760773909e+00,8.466130617035071110e-06,6.062249577557686786e-01,-7.952932166957926707e-01,1.401052673585507762e+02
4.565049113129895808e+00,5.971881536837410076e-01,5.839012965868220384e+00,6.989353391329995950e-06,5.053730251597434719e-01,-8.629009823798082790e-01,1.415531542347035270e+02
4.679369102891385523e+00,8.660989537578092090e-01,6.105396673786978035e+00,5.329245833618615555e-06,3.915564384087528715e-01,-9.201540933518971288e-01,1.432592008332030673e+02
4.786968659263982850e+00,1.151927527043408395e+00,6.357586516545430833e+00,3.552830532884066818e-06,2.693300899516990476e-01,-9.630479233319528820e-01,1.449652474317026076e+02
4.880616120837382610e+00,1.449330701155934875e+00,6.589429319177302347e+00,1.747338315196505454e-06,1.446959013923221349e-01,-9.894761725868946867e-01,1.466712940302021480e+02
4.952921473354555459e+00,1.753106560310959905e+00,6.794636254398779940e+00,0.000000000000000000e+00,2.371239420780988857e-02,-9.997188216498343882e-01,1.483773406287016883e+02
4.998946829057773655e+00,2.059429384687669895e+00,6.969114058068619499e+00,0.000000000000000000e+00,2.364363208381203840e-02,-9.997204502569133622e-01,1.500833872272012286e+02
5.018850871759832799e+00,2.367067835209562432e+00,7.113310882307197325e+00,0.000000000000000000e+00,2.357486983995529806e-02,-9.997220741346213302e-01,1.517894338257007689e+02
5.021109694023966341e+00,2.509121002805234202e+00,7.171588264956254122e+00,0.000000000000000000e+00,2.350610747721555704e-02,-9.997236932829338674e-01,1.525751570155114223e+02
5.012822648466990216e+00,2.818083735575196869e+00,7.282189741449401232e+00,0.000000000000000000e+00,2.343734499656869447e-02,-9.997253077018265488e-01,1.542812036140109626e+02
4.984529713349696856e+00,3.127861030196421588e+00,7.368467427742953824e+00,0.000000000000000000e+00,2.336858239899060330e-02,-9.997269173912751716e-01,1.559872502125105029e+02
4.938441658084718355e+00,3.438466437699713829e+00,7.432654619215207425e+00,0.000000000000000000e+00,2.329981968545717999e-02,-9.997285223512557550e-01,1.576932968110100433e+02
4.876624106430079486e+00,3.749903258444309273e+00,7.476837335425483566e+00,0.000000000000000000e+00,2.323105685694432446e-02,-9.997301225817443182e-01,1.593993434095095836e+02
4.801014309115713807e+00,4.062165611736062942e+00,7.502968227452321948e+00,0.000000000000000000e+00,2.316229391442793661e-02,-9.997317180827172134e-01,1.611053900080091239e+02
4.713436877217224819e+00,4.375239313532677699e+00,7.512879596074175659e+00,0.000000000000000000e+00,2.309353085888393720e-02,-9.997333088541512369e-01,1.628114366065086642e+02
4.615618603094263861e+00,4.689102576165745440e+00,7.508295607583759690e+00,0.000000000000000000e+00,2.302476769128823653e-02,-9.997348948960229631e-01,1.645174832050082045e+02
4.509202488373742490e+00,5.003726541755642465e+00,7.490843788677841175e+00,0.000000000000000000e+00,2.295600441261675534e-02,-9.997364762083095213e-01,1.662235298035077449e+02
4.395761092077190568e+00,5.319075658879864221e+00,7.462065877058310370e+00,0.000000000000000000e+00,2.288724102384542131e-02,-9.997380527909880410e-01,1.679295764020072852e+02
4.276809306516680564e+00,5.635107910056933456e+00,7.423428100084849213e+00,0.000000000000000000e+00,2.281847752595016557e-02,-9.997396246440358736e-01,1.696356230005068255e+02
4.153816663970904877e+00,5.951774895703425550e+00,7.376330950005907994e+00,0.000000000000000000e+00,2.274971391990691927e-02,-9.997411917674305926e-01,1.713416695990063658e+02
4.028219273364183728e+00,6.269021778389844535e+00,7.322118520938445840e+00,0.000000000000000000e+00,2.268095020669162395e-02,-9.997427541611501045e-01,1.730477161975059062e+02
3.901431483176528658e+00,6.586787089444283261e+00,7.262087469845522669e+00,0.000000000000000000e+00,2.261218638728022465e-02,-9.997443118251720939e-01,1.747537627960054465e+02
3.774857364588989128e+00,6.905002398211666836e+00,7.197495661253886290e+00,0.000000000000000000e+00,2.254342246264866984e-02,-9.997458647594750225e-01,1.764598093945049868e+02
3.649902107397340778e+00,7.223591842550836084e+00,7.129570553345182304e+00,0.000000000000000000e+00,2.247465843377290801e-02,-9.997474129640372409e-01,1.781658559930045271e+02
3.527983420495109268e+00,7.542471517424321092e+00,7.059517381331737340e+00,0.000000000000000000e+00,2.240589430162890500e-02,-9.997489564388373218e-01,1.798719025915040675e+02
3.410543028730673498e+00,7.861548716687333460e+00,6.988527192675030086e+00,0.000000000000000000e+00,2.233713006719261970e-02,-9.997504951838540599e-01,1.815779491900036078e+02
3.299058358683248482e+00,8.180721021394843362e+00,6.917784787714799322e+00,0.000000000000000000e+00,2.226836573144001449e-02,-9.997520291990663610e-01,1.832839957885031481e+02
3.195054507378122022e+00,8.499875226102396653e+00,6.848476618648219549e+00,0.000000000000000000e+00,2.219960129534705867e-02,-9.997535584844534640e-01,1.849900423870026884e+02
3.100116590189032628e+00,8.818886092715025882e+00,6.781798699522031626e+00,0.000000000000000000e+00,2.213083675988973542e-02,-9.997550830399949406e-01,1.866960889855022288e+02
3.015902567174274740e+00,9.137614919418988180e+00,6.718964579973175866e+00,0.000000000000000000e+00,2.206207212604401058e-02,-9.997566028656700299e-01,1.884021355840017691e+02
2.944156650883547499e+00,9.455907910097796076e+00,6.661213435874445921e+00,0.000000000000000000e+00,2.199330739478587426e-02,-9.997581179614589697e-01,1.901081821825013094e+02
2.886723403282712042e+00,9.773594327354148348e+00,6.609818330823831189e+00,0.000000000000000000e+00,2.192454256709130619e-02,-9.997596283273413320e-01,1.918142287810008497e+02
2.848845677098375440e+00,1.005002891483725591e+01,6.569379032199718083e+00,0.000000000000000000e+00,7.929586950723132785e-03,-9.999685603311690985e-01,1.933097736182592428e+02
2.820635436841576915e+00,1.035636709651056364e+01,6.523804875259076042e+00,0.000000000000000000e+00,-6.075158624693500695e-03,-9.999815460535683709e-01,1.950158202167587831e+02
2.809453844674226541e+00,1.064390219174636876e+01,6.472140602233842799e+00,0.000000000000000000e+00,-2.008145964489685756e-02,-9.997983471573306247e-01,1.967218668152583234e+02
2.815769459211418191e+00,1.090299449388444764e+01,6.406996393949574653e+00,0.000000000000000000e+00,-3.408107400549529459e-02,-9.994190714583307544e-01,1.984279134137578637e+02
2.840111345920183883e+00,1.112379078550875278e+01,6.320892561392598807e+00,-0.000000000000000000e+00,-4.806577624515451230e-02,-9.988441726084960059e-01,2.001339600122574041e+02
2.876691456293908988e+00,1.128514104205884827e+01,6.222422179175292278e+00,-1.055924979795550868e-02,-4.939235300017950914e-02,-9.987236342997045657e-01,2.016645967127250856e+02
2.932374571600579127e+00,1.142406125637562830e+01,6.088883928649073241e+00,-2.238366198679950583e-02,-5.087141098008227114e-02,-9.984543410797291907e-01,2.033706433112246259e+02
3.002204409494400039e+00,1.152147308120302149e+01,5.931505448599255992e+00,-3.570902157585306713e-02,-5.253002620218338858e-02,-9.979806922607736830e-01,2.050766899097241662e+02
3.084038523084710270e+00,1.158066418488056648e+01,5.752515013152153855e+00,-5.083166596779446766e-02,-5.440182542099734897e-02,-9.972244396953987566e-01,2.067827365082237066e+02
3.175859033778685614e+00,1.160465636602755524e+01,5.553996811020877722e+00,-6.812843101070548135e-02,-5.652897843787034471e-02,-9.960737881727388388e-01,2.084887831067232469e+02
3.275754014616284238e+00,1.159622695075268872e+01,5.337904840641627402e+00,-8.808456702930349269e-02,-5.896489577926834758e-02,-9.943662555200674102e-01,2.101948297052227872e+02
3.381899911532996850e+00,1.155792852581873831e+01,5.106075937341366000e+00,-1.113332554420783660e-01,-6.177788707482124303e-02,-9.918610784284458415e-01,2.119008763037223275e+02
3.492544845667010289e+00,1.149210714591116123e+01,4.860242019388012480e+00,-1.387120375596947452e-01,-6.505608843490952309e-02,-9.881936429635576058e-01,2.136069229022218678e+02
3.605992648138857337e+00,1.140091914307729759e+01,4.602041634566529815e+00,-1.713436312804304806e-01,-6.891393915986880614e-02,-9.827981629048284651e-01,2.153129695007214082e+02
3.720587485749192513e+00,1.128634665720601049e+01,4.333030884261345861e+00,-2.107505621086829539e-01,-7.350015333731470257e-02,-9.747727571235592636e-01,2.170190160992209485e+02
3.834698941829115970e+00,1.115021199804830587e+01,4.054693797875374095e+00,-2.590115577667647107e-01,-7.900581437177657540e-02,-9.626375715910355790e-01,2.187250626977204888e+02
3.946707421092076284e+00,1.099419094168500699e+01,3.768452226751190626e+00,-3.189509686956703560e-01,-8.566695240818197887e-02,-9.438916531218971562e-01,2.204311092962200291e+02
4.054989750820261030e+00,1.081982505747989265e+01,3.475675323558790719e+00,-3.942812731017527605e-01,-9.374321724751803753e-02,-9.141960877740320512e-01,2.221371558947195695e+02
4.158186659218829462e+00,1.062852335338927823e+01,3.177751947441846525e+00,-4.893732868774390288e-01,-1.034189386170544789e-01,-8.659204982133716921e-01,2.238432024932191098e+02
4.255472379970409946e+00,1.042156017041347127e+01,2.876163200542945830e+00,-6.076137923245344963e-01,-1.144897507593334585e-01,-7.859373870405091944e-01,2.255492490917186501e+02
4.346264994654409186e+00,1.020009032890911449e+01,2.572429025309307615e+00,-7.458736336732443295e-01,-1.255932381810923870e-01,-6.541397871359441174e-01,2.272552956902181904e+02
4.429938927252915271e+00,9.965166320425318247e+00,2.268055060736406059e+00,-8.830768446554291273e-01,-1.330803158526741581e-01,-4.499610160513504709e-01,2.289613422887177308e+02
4.505819011035605115e+00,9.717746423545749579e+00,1.964542680349302461e+00,-9.751246624642200267e-01,-1.316244582251888395e-01,-1.783448755949165743e-01,2.306673888872172711e+02
4.573174216535186964e+00,9.458702171789536095e+00,1.663399001752767781e+00,-9.869682350094175494e-01,-1.193424563173296205e-01,1.079401741824671385e-01,2.323734354857168114e+02
4.631210984201348246e+00,9.188825231433824570e+00,1.366146934478201791e+00,-9.323420373215908219e-01,-1.009359812171629206e-01,3.472034751248235240e-01,2.340794820842163517e+02
4.679066102577300157e+00,8.908833743212417389e+00,1.074335333114125213e+00,-8.506593043252325126e-01,-8.235113929601205196e-02,5.192273469507940886e-01,2.357855286827158920e+02
4.715799069578002545e+00,8.619378178357944620e+00,7.895493234104584701e-01,-7.690151606688778729e-01,-6.644108465027913357e-02,6.357682478166981621e-01,2.374915752812154324e+02
4.740383870645934472e+00,8.321046756365033659e+00,5.134208702001513691e-01,-6.975745563264609261e-01,-5.363786924787632832e-02,7.145017266238682385e-01,2.391976218797149727e+02
4.751700103190951374e+00,8.014370469143214493e+00,2.476396575935329858e-01,-6.379019342085365807e-01,-4.349114398846307822e-02,7.688885762759012366e-01,2.409036684782145130e+02
4.748523371752342292e+00,7.699827753884679105e+00,-6.035646018674543228e-03,-5.886626285988169061e-01,-3.541510022810315933e-02,8.076026748141469369e-01,2.426097150767140533e+02
4.729514872719948748e+00,7.377848854980718407e+00,-2.457656630511708407e-01,-5.479514591907113097e-01,-2.891110394672761347e-02,8.360103746003105796e-01,2.443157616752135937e+02
4.693210081172979997e+00,7.048819913675025361e+00,-4.696180437265704555e-01,-5.140308918674966199e-01,-2.359941214247208985e-02,8.574469720935724570e-01,2.460218082737131340e+02
4.638006445388072052e+00,6.713086822830342193e+00,-6.755545832374382220e-01,-4.854921297408257286e-01,-1.920035452603113812e-02,8.740301701576392857e-01,2.477278548722126743e+02
4.562149986781757427e+00,6.370958883202463063e+00,-8.614176331803720110e-01,-4.612377710350099580e-01,-1.550900167471683071e-02,8.871410200400551282e-01,2.494339014707122146e+02
4.463720694426203117e+00,6.022712296966349577e+00,-1.024915716668741705e+00,-4.404228338057062930e-01,-1.237418846342189412e-02,8.977051893146339445e-01,2.511399480692117550e+02
4.340616593741596141e+00,5.668593533923837136e+00,-1.163608251221328160e+00,-4.223962710663233255e-01,-9.683118100566066866e-03,9.063595464345899355e-01,2.528459946677112953e+02
4.190536358449170606e+00,5.308822605843476872e+00,-1.274889277575996127e+00,-4.066533266601235486e-01,-7.350498914647853564e-03,9.135529771622227235e-01,2.545520412662108356e+02
4.177444625228145192e+00,5.279941196148594251e+00,-1.282600317549601243e+00,-3.927992363517432417e-01,-5.310955143309799807e-03,9.196089134392689823e-01,2.546879552245006266e+02
3.997491096016076551e+00,4.914824631513572406e+00,-1.363322231614263691e+00,-3.805222528779113600e-01,-3.513710134430904526e-03,9.247650884985928466e-01,2.563940018230001670e+02
3.785171319165779202e+00,4.544633355925576268e+00,-1.410574260319183981e+00,-3.695737421038576276e-01,-1.918829193197732052e-03,9.291994227515849580e-01,2.581000484214997073e+02
3.537462522005054399e+00,4.169530451720731001e+00,-1.421140826111577660e+00,-3.597534765865136319e-01,-4.945344230605766209e-04,9.330472611393385574e-01,2.598060950199992476e+02
3.254395732583487355e+00,3.790993473850674977e+00,-1.390736075622013734e+00,-2.765674336257319954e-01,8.965673928653607183e-02,9.568030747014676374e-01,2.615121416184987879e+02
2.942412020704123332e+00,3.413119883818124922e+00,-1.313149609677551233e+00,-1.860830497125406102e-01,1.813315853247520759e-01,9.656562301219270283e-01,2.632181882169983282e+02
2.823526111270179939e+00,3.275978236686609257e+00,-1.274017606889092713e+00,-9.249664489036166226e-02,2.699836209588589164e-01,9.584118191560293543e-01,2.638412905491399556e+02
2.491283263093615474e+00,2.906813383454273314e+00,-1.132248853314964832e+00,-4.501745269200441266e-04,3.515007189883057603e-01,9.361875035982907267e-01,2.655473371476394959e+02
2.152433167708887929e+00,2.551590109427094966e+00,-9.297334359716941110e-01,1.405466829049354695e-02,3.842748606014161905e-01,9.231117471947838382e-01,2.672533837461390362e+02
1.813930764518670413e+00,2.215673618569340420e+00,-6.707530178882441518e-01,3.147556251768774543e-02,4.229580276916450332e-01,9.056024490776229952e-01,2.689594303446385766e+02
1.481938711909454698e+00,1.904518386778492722e+00,-3.633678671755393164e-01,5.263826153961204124e-02,4.689426771330956756e-01,8.816586521921806474e-01,2.706654769431381169e+02
1.162719405111864335e+00,1.623713910907899072e+00,-1.531554114826711582e-02,7.861145373538515335e-02,5.238392724944955781e-01,8.481819710027129755e-01,2.723715235416376572e+02
8.626873827567101971e-01,1.379024954664579639e+00,3.659375279448953688e-01,1.107003643421047151e-01,5.892237667053401573e-01,8.003504120596779403e-01,2.740775701401371975e+02
5.884633179508316214e-01,1.176432680048997703e+00,7.731462547602336866e-01,1.502619997566770615e-01,6.658486595351240656e-01,7.307988054344389806e-01,2.757836167386367379e+02
3.469300431010622909e-01,1.022176953748605399e+00,1.199238598401355826e+00,1.980377509784483347e-01,7.517009234546598861e-01,6.290681766428896093e-01,2.774896633371362782e+02
1.452910767714138407e-01,9.228001230529637722e-01,1.637268413636920439e+00,2.525317818905306599e-01,8.383527590999381163e-01,4.831069761913135419e-01,2.791957099356358185e+02
-8.867856211398680161e-03,8.851925630268423495e-01,2.080369141453128456e+00,3.075819894314125169e-01,9.073678752908066469e-01,2.864905908885347907e-01,2.809017565341353588e+02
-1.075299713214340341e-01,9.128311047476738160e-01,2.520584645840783455e+00,3.520708716575237096e-01,9.345453867521342772e-01,5.168192556992488862e-02,2.826078031326348992e+02
-1.422376354403884491e-01,1.001992079590961815e+00,2.947692786456328928e+00,3.761914018549997740e-01,9.076566577926434842e-01,-1.861166858050568862e-01,2.843138497311344395e+02
-1.040680757675096491e-01,1.145529674745111581e+00,3.350260652720861376e+00,3.793338165344506407e-01,8.388864868862885293e-01,-3.903528118932777513e-01,2.860198963296339798e+02
7.580822748645335910e-03,1.336622570731309745e+00,3.716708599777855504e+00,3.686086387789494490e-01,7.524188927057836596e-01,-5.458877918738725965e-01,2.877259429281335201e+02
1.761329978249004391e-01,1.566945290947239444e+00,4.037173588688797388e+00,3.517472443239569868e-01,6.666967665815617394e-01,-6.571067626650886062e-01,2.894319895266330604e+02
3.765288968057168839e-01,1.824886428435828156e+00,4.305350223165461898e+00,3.336091316629012371e-01,5.901620623596673942e-01,-7.351283475846301929e-01,2.911380361251326008e+02
5.838583965168001599e-01,2.097370797279690446e+00,4.516508171115594550e+00,3.164571888834452063e-01,5.248404516665486907e-01,-7.901881724617501046e-01,2.928440827236321411e+02
7.731588530470946408e-01,2.371621170683712254e+00,4.665536960996591098e+00,3.010848542959948526e-01,4.699884861730234675e-01,-8.297341341528315928e-01,2.945501293221316814e+02
8.696363512359652770e-01,2.529527946523699722e+00,4.726343058898332394e+00,2.876121971268348898e-01,4.240362125655360304e-01,-8.587621990382146020e-01,2.955511394334051261e+02
9.888098013866060132e-01,2.783357113729264753e+00,4.779873946422378950e+00,2.758959548284470320e-01,3.853770629423197147e-01,-8.805486593410104534e-01,2.972571860319046664e+02
1.023061764400929885e+00,2.893972813331806559e+00,4.783201286123158980e+00,2.657136782167191513e-01,3.526211201874115408e-01,-8.972483417684966600e-01,2.980518909753240564e+02
1.049648663954833028e+00,3.109450799048767422e+00,4.742480863395105217e+00,3.532833449224508371e-01,2.648814910786053689e-01,-8.972339014350602104e-01,2.997579375738235967e+02
1.008378092285177940e+00,3.288960167399188173e+00,4.626793954281546384e+00,3.896799656040889626e-01,2.759064287494780165e-01,-8.786496269739748621e-01,3.014639841723231370e+02
9.121978139436986988e-01,3.434872993897205795e+00,4.442579945052171020e+00,4.335428588053168997e-01,2.888042958666396931e-01,-8.535998291165992624e-01,3.031700307708226774e+02
7.745951607086759561e-01,3.551705571819915086e+00,4.198138630081140299e+00,4.868738610870517181e-01,3.038666331922922903e-01,-8.189132509750756128e-01,3.048760773693222177e+02
6.087562456007830081e-01,3.643657786273162724e+00,3.901368272666405179e+00,5.519850816359254120e-01,3.212210319863573194e-01,-7.694995245359156355e-01,3.065821239678217580e+02
4.276710260701503397e-01,3.714645978570609408e+00,3.559818262177994352e+00,6.308851683449628878e-01,3.404312455286609973e-01,-6.972018871389781269e-01,3.082881705663212983e+02
2.442370315877418208e-01,3.768332922268907481e+00,3.180739445288256473e+00,7.232696047646598458e-01,3.595590169612399856e-01,-5.895747553495142013e-01,3.099942171648208387e+02
7.136257861617463505e-02,3.808155138922537208e+00,2.771132466835831920e+00,8.216305776289523077e-01,3.734314358725244198e-01,-4.306647844986850049e-01,3.117002637633203790e+02
-7.792970642472170362e-02,3.837347755726670862e+00,2.337794442612624923e+00,9.040993998640997065e-01,3.722351983796033381e-01,-2.098695600907189429e-01,3.134063103618199193e+02
-1.903982314794274155e-01,3.858967082799454662e+00,1.887364275237112032e+00,9.367023775569708333e-01,3.454426674731664315e-01,5.707906243221980841e-02,3.151123569603194596e+02
-2.524758151074956158e-01,3.875911064699084640e+00,1.426366915231177757e+00,9.008864032234040753e-01,2.934181895921555983e-01,3.198584913733881763e-01,3.168184035588190000e+02
-2.543102040114447182e-01,3.890948314598460467e+00,9.629176799282311849e-01,8.158011042156365633e-01,2.304303490901964124e-01,5.304435998093657290e-01,3.185244501573185403e+02
-1.938344931673487148e-01,3.906787808684408336e+00,5.084371752368923580e-01,7.155858375397234905e-01,1.710706436607264125e-01,6.772530871026555266e-01,3.202304967558180806e+02
-7.260045995090391724e-02,3.926147768463664089e+00,7.606661844335810274e-02,6.219645602386839611e-01,1.216021234648023558e-01,7.735457383865232961e-01,3.219365433543176209e+02
1.083589707263344359e-01,3.951782258934849246e+00,-3.209053677892150791e-01,5.422460819835236423e-01,8.231604044664161957e-02,8.361777658241724698e-01,3.236425899528171612e+02
3.470730933972857590e-01,3.986330723361466877e+00,-6.691735771196918314e-01,4.765837756192400354e-01,5.144300103999556451e-02,8.776226537986067111e-01,3.253486365513167016e+02
6.385517258968359533e-01,4.032050556852944112e+00,-9.579449868099796372e-01,4.228715667173420512e-01,2.702930688536691467e-02,9.057864288182491119e-01,3.270546831498162419e+02
9.755739281490432013e-01,4.090894431259697761e+00,-1.181045441596035195e+00,3.787373277575718511e-01,7.475068657913598244e-03,9.254740190365222663e-01,3.287607297483157822e+02
1.157467862607955977e+00,4.124908975001504885e+00,-1.270952730474191217e+00,3.421422461676195126e-01,-8.418307444136425427e-03,9.396104594389912412e-01,3.296156035490444651e+02
1.538823328894902254e+00,4.204062337435401808e+00,-1.404730166208828068e+00,2.310825368223509979e-01,-5.868353752163557764e-03,9.729164525281635001e-01,3.313216501475440054e+02
1.939586548414108158e+00,4.304273909337375414e+00,-1.467488790374086527e+00,1.153255720557036373e-01,-3.202825501912086401e-03,9.933225832220009544e-01,3.330276967460435458e+02
2.345639304895242194e+00,4.430807630556860666e+00,-1.460178026367809911e+00,-4.255527487359160349e-04,-5.300205705846807109e-04,9.999997689914997823e-01,3.347337433445430861e+02
2.745055874111503424e+00,4.585754640746063870e+00,-1.385610435122697659e+00,-7.739681322975802691e-02,1.113205168915105125e-01,9.907661055066856459e-01,3.364397899430426264e+02
2.790314527699148783e+00,4.605183059854237371e+00,-1.373258045906758928e+00,-1.627521848064668042e-01,2.353800606211899071e-01,9.581794995733766696e-01,3.366359744585153067e+02
3.174672178444673420e+00,4.783661103087221811e+00,-1.238119319281352215e+00,-2.510187222353094660e-01,3.637023244645173348e-01,8.970564197788561955e-01,3.383420210570148470e+02
3.537797807696292374e+00,4.977147935468646089e+00,-1.052823274943774923e+00,-3.345264488810277825e-01,4.851421665995007682e-01,8.079165385027040625e-01,3.400480676555143873e+02
3.873614191891328495e+00,5.177998616214952499e+00,-8.259867381145759024e-01,-4.061582641399047455e-01,5.893496516558273113e-01,6.983569664319347892e-01,3.417541142540139276e+02
4.175757179919020068e+00,5.378670090021175021e+00,-5.659495865966982509e-01,-4.620980180209194321e-01,6.707663964024360714e-01,5.801188354108389733e-01,3.434601608525134679e+02
4.437524399243584661e+00,5.571667965071453565e+00,-2.808303521315047568e-01,-5.024143593103287397e-01,7.294795710168736624e-01,4.641544646212399372e-01,3.451662074510130083e+02
4.654759936293493716e+00,5.751741077056120588e+00,2.289063140700458784e-02,-5.100804599089862057e-01,7.406103511636781267e-01,4.373948241214689614e-01,3.468722540495125486e+02
4.828784615050897067e+00,5.918062870196322045e+00,3.417990015612726307e-01,-5.179983865921375941e-01,7.521067697136913921e-01,4.074470253159038768e-01,3.485783006480120889e+02
4.963504726354960539e+00,6.071936201231408425e+00,6.740526265177027021e-01,-5.260903767174649470e-01,7.638559193466749608e-01,3.738355922117659880e-01,3.502843472465116292e+02
5.030150471182740723e+00,6.161094191746066429e+00,8.825761682223643989e-01,-5.342353393555556718e-01,7.756819823185593377e-01,3.360209286488037850e-01,3.513286181742291205e+02
5.115830078999859865e+00,6.299268001157160235e+00,1.230023095298599767e+00,-5.422526499349573648e-01,7.873227011272319054e-01,2.934025015711966278e-01,3.530346647727286609e+02
5.170884465951113285e+00,6.427593394821977668e+00,1.585831556092269778e+00,-5.498817426821521748e-01,7.983997477946702670e-01,2.453322477503643850e-01,3.547407113712282012e+02
5.198280423554296092e+00,6.547000447291659420e+00,1.948405419916277692e+00,-5.567579756324355644e-01,8.083836811155060698e-01,1.911449206121263178e-01,3.564467579697277415e+02
5.200766534185034651e+00,6.658331626725408903e+00,2.316193660502004814e+00,-5.623870525097434125e-01,8.165568085542129761e-01,1.302143677677758959e-01,3.581528045682272818e+02
5.180894892392676532e+00,6.762349590793236942e+00,2.687680015415358170e+00,-5.661235513822197030e-01,8.219820109674971231e-01,6.204593633923727314e-02,3.598588511667268222e+02
5.141041285551535722e+00,6.859744234042879363e+00,3.061372877241798296e+00,-5.671640503577561887e-01,8.234927614710451094e-01,-1.358719200486382603e-02,3.615648977652263625e+02
5.083423992465109009e+00,6.951139049857137486e+00,3.435795349144932676e+00,-5.645710706725399763e-01,8.197278895612862826e-01,-9.646602114248013782e-02,3.632709443637259028e+02
5.010121347771054445e+00,7.037096863903590460e+00,3.809475398499185150e+00,-5.573472723751937696e-01,8.092393093975062124e-01,-1.857303370528873565e-01,3.649769909622254431e+02
4.923088210380094587e+00,7.118124990251480710e+00,4.180936042951637788e+00,-5.445735449004707185e-01,7.906925201470188513e-01,-2.797230644371161423e-01,3.666830375607249835e+02
4.824171465648530166e+00,7.194679856050378852e+00,4.548685503484583670e+00,-5.256027347970317898e-01,7.631478885901180620e-01,-3.759615210554476672e-01,3.683890841592245238e+02
4.715124683466380695e+00,7.267171135784520786e+00,4.911207258829810129e+00,-5.002636830468066842e-01,7.263569007168769742e-01,-4.713193187271417783e-01,3.700951307577240641e+02
4.597622047882696350e+00,7.335965431592182284e+00,5.266949934927575683e+00,-4.689972013356465408e-01,6.809595922140442292e-01,-5.624372488651633306e-01,3.718011773562236044e+02
4.473271668235727638e+00,7.401389531930819388e+00,5.614316962024115121e+00,-4.328493068921330789e-01,6.284747258021552430e-01,-6.462669700293414143e-01,3.735072239547231447e+02
4.343628376965270377e+00,7.463733276937948524e+00,5.951655930452570686e+00,-3.933031097912262353e-01,5.710557003266125697e-01,-7.205609279950118129e-01,3.752132705532226851e+02
4.210206115318714026e+00,7.523252055149050044e+00,6.277247574133437702e+00,-3.520087965726975132e-01,5.110985009873271201e-01,-7.841352749519362453e-01,3.769193171517222254e+02
4.074490004993062797e+00,7.580168952754345213e+00,6.589294308348294216e+00,-3.105140814836080398e-01,4.508503285341993183e-01,-8.368482457775696659e-01,3.786253637502217657e+02
3.937948201357607925e+00,7.634676573274826517e+00,6.885908245368874248e+00,-2.700781120303425986e-01,3.921393997882320348e-01,-8.793659673513927189e-01,3.803314103487213060e+02
3.802043622256557676e+00,7.686938542383601636e+00,7.165098608042678840e+00,-2.315959916800585106e-01,3.362653585218166041e-01,-9.128465946126569364e-01,3.820374569472208464e+02
3.668245645485635364e+00,7.737090709562577828e+00,7.424758457423589419e+00,-1.956128820107367050e-01,2.840197510486101029e-01,-9.386524284343694680e-01,3.837435035457203867e+02
3.538041867868461754e+00,7.785242055338021494e+00,7.662650645961319285e+00,-1.623877379651670894e-01,2.357785665040312006e-01,-9.581433557332955653e-01,3.854495501442199270e+02
3.412950019425905257e+00,7.831475309954388564e+00,7.876392902598495560e+00,-1.319716142200874076e-01,1.916159336286201720e-01,-9.725568502765155054e-01,3.871555967427194673e+02
3.294530127432450328e+00,7.875847286499811695e+00,8.063441950339395703e+00,-1.042793525973596258e-01,1.514082071680059038e-01,-9.829554269772591280e-01,3.888616433412190077e+02
3.184397027204262098e+00,7.918388928659655157e+00,8.221076550404637473e+00,-7.914597383697483113e-02,1.149158458001942607e-01,-9.902172808073097521e-01,3.905676899397185480e+02
3.084233319283129493e+00,7.959105070419163042e+00,8.346379359928349118e+00,-5.636682442683517424e-02,8.184170324851974820e-02,-9.950501076395176225e-01,3.922737365382180883e+02
2.995802876288258698e+00,7.997973902137008650e+00,8.436217482244424914e+00,-3.572402564079837223e-02,5.186943091200302280e-02,-9.980147073710289307e-01,3.939797831367176286e+02
2.920965007133515368e+00,8.034946134440577481e+00,8.487221580092061402e+00,-1.700268152416839137e-02,2.468701101897803271e-02,-9.995506291869044047e-01,3.956858297352171689e+02
2.861689391586284437e+00,8.069943848322672864e+00,8.495763412489852229e+00,0.000000000000000000e+00,-0.000000000000000000e+00,-1.000000000000000000e+00,3.973918763337167093e+02
2.858879493118315018e+00,8.071817933026581571e+00,8.495007253675465719e+00,0.000000000000000000e+00,0.000000000000000000e+00,-1.000000000000000000e+00,3.974859611618505255e+02
2.855750470115498096e+00,8.073908283346300507e+00,8.494152681502924906e+00,-0.000000000000000000e+00,-0.000000000000000000e+00,-1.000000000000000000e+00,3.975908962229267445e+02
2.812543303486496171e+00,8.105636310628462127e+00,8.458216605030674629e+00,0.000000000000000000e+00,0.000000000000000000e+00,-1.000000000000000000e+00,3.992969428214262848e+02
2.782267596864858916e+00,8.130706688677063809e+00,8.380690665121656835e+00,0.000000000000000000e+00,0.000000000000000000e+00,-1.000000000000000000e+00,4.010029894199258251e+02
2.760331860707160523e+00,8.144844401366347242e+00,8.266029682378700727e+00,0.000000000000000000e+00,0.000000000000000000e+00,-1.000000000000000000e+00,4.027090360184253655e+02
2.742176385958980056e+00,8.143728827157371342e+00,8.118440900670863769e+00,0.000000000000000000e+00,0.000000000000000000e+00,-1.000000000000000000e+00,4.044150826169249058e+02
2.723235519637243751e+00,8.122961786634911974e+00,7.941912036521701523e+00,0.000000000000000000e+00,0.000000000000000000e+00,-1.000000000000000000e+00,4.061211292154244461e+02
2.698899621288871842e+00,8.078035307806738174e+00,7.740237864925465061e+00,0.000000000000000000e+00,0.000000000000000000e+00,-1.000000000000000000e+00,4.078271758139239864e+02
2.664476386541908326e+00,8.004298875153562420e+00,7.517045518836929396e+00,0.000000000000000000e+00,0.000000000000000000e+00,-1.000000000000000000e+00,4.095332224124235267e+02
2.615151216822015012e+00,7.896925927037736770e+00,7.275818671004662619e+00,0.000000000000000000e+00,0.000000000000000000e+00,-1.000000000000000000e+00,4.112392690109230671e+02
2.569500031369837956e+00,7.799598546323983861e+00,7.095316298840375957e+00,0.000000000000000000e+00,0.000000000000000000e+00,-1.000000000000000000e+00,4.124564453059660991e+02
2.486537120558755642e+00,7.629750977586828853e+00,6.833530224832374600e+00,0.000000000000000000e+00,0.000000000000000000e+00,-1.000000000000000000e+00,4.141624919044656394e+02
2.374839043293964558e+00,7.412266637289907756e+00,6.562988363146720516e+00,-0.000000000000000000e+00,-0.000000000000000000e+00,-1.000000000000000000e+00,4.158685385029651798e+02
2.237243474125758969e+00,7.152436321074347347e+00,6.288080347892940125e+00,4.950571564335865676e-02,-6.455927306128930732e-02,-9.966851480685546827e-01,4.175745851014647201e+02
2.088538608880188718e+00,6.867568701327365410e+00,6.016867800749446715e+00,1.000755245409607613e-01,-1.305062058315761553e-01,-9.863838094916693722e-01,4.192806316999642604e+02
1.942408946738263475e+00,6.566316185850734399e+00,5.761174288842690672e+00,1.506568793440347942e-01,-1.964681953534807846e-01,-9.688667364095350232e-01,4.209866782984638007e+02
1.807801204358621128e+00,6.247427390696226546e+00,5.534184683403126748e+00,2.001510477827317114e-01,-2.610124099689085653e-01,-9.443580252815650944e-01,4.226927248969633411e+02
1.693744728317840620e+00,5.909452155363141834e+00,5.349275222419121789e+00,2.475285750713272503e-01,-3.227963612045161024e-01,-9.135272922667838635e-01,4.243987714954628814e+02
1.609423445430957500e+00,5.550729944983143760e+00,5.220102689038447430e+00,2.919328755033458456e-01,-3.807029952048832100e-01,-8.774055080989512367e-01,4.261048180939624217e+02
1.568882664741247490e+00,5.285961563181466261e+00,5.163332289289879640e+00,2.689228038516576769e-01,-2.937047189126807401e-01,-9.172884299155779075e-01,4.273075152763349251e+02
1.535740408475329000e+00,4.892688162340965263e+00,5.127577127493522013e+00,2.427649755174205171e-01,-2.020239357994876306e-01,-9.488158388360254936e-01,4.290135618748344655e+02
1.528129131346242842e+00,4.475461588902722276e+00,5.140738884513823770e+00,2.141592080253216790e-01,-1.083060284401512613e-01,-9.707757917364276956e-01,4.307196084733340058e+02
1.538273760879512730e+00,4.032992722177158207e+00,5.190973458729381207e+00,1.840216656673749063e-01,-1.537641874719230389e-02,-9.828019089885388082e-01,4.324256550718335461e+02
1.560658475992705352e+00,3.567734177852394328e+00,5.266174995865351427e+00,1.632849456283448075e-01,4.070549285556070152e-02,-9.857388545565881621e-01,4.341317016703330864e+02
1.562414089540848483e+00,3.537551833417750036e+00,5.271548155756154763e+00,1.414653806298669936e-01,9.792726364534991290e-02,-9.850877103680570901e-01,4.342400783826701058e+02
1.595878001275259139e+00,3.060044418927499343e+00,5.358368972309711431e+00,1.187627237077951842e-01,1.556647427039862530e-01,-9.806446366224655931e-01,4.359461249811696462e+02
1.641694075701102484e+00,2.584736873347269093e+00,5.442925787793581272e+00,9.541691001157000251e-02,2.132462312300383300e-01,-9.723279581242273428e-01,4.376521715796691865e+02
1.701267441057869201e+00,2.125474806654676474e+00,5.511814825837277887e+00,7.169612507863916406e-02,2.699896994796487926e-01,-9.601902039823135837e-01,4.393582181781687268e+02
1.776232793976525004e+00,1.696210501677947402e+00,5.551527854076071300e+00,4.788167910818409007e-02,3.252424499496699983e-01,-9.444176478425829746e-01,4.410642647766682671e+02
1.868469063402169450e+00,1.311103966427404455e+00,5.548362125754882079e+00,2.425162788980676082e-02,3.784179794627716142e-01,-9.253170761225624208e-01,4.427703113751678075e+02
1.980116925383344384e+00,9.846253949029846186e-01,5.488329024519103427e+00,1.065309812990342326e-03,4.290253040927120565e-01,-9.032918429628147283e-01,4.444763579736673478e+02
2.112265112563876723e+00,7.261773903409035613e-01,5.362741104636639555e+00,6.057706095151690721e-04,4.545113447767172299e-01,-8.907407425908107079e-01,4.461824045721668881e+02
2.263567201580682919e+00,5.346934972551055099e-01,5.173834473737252360e+00,1.417610572189604185e-05,4.867420714071599153e-01,-8.735457376241414496e-01,4.478884511706664284e+02
2.431476539261339997e+00,4.041317350877068892e-01,4.929103399477408054e+00,-7.721325544548024097e-04,5.285736753055345627e-01,-8.488870794076899262e-01,4.495944977691659687e+02
2.613532976570706268e+00,3.289184283333124181e-01,4.635669971973161552e+00,-1.858566828610502125e-03,5.844712341882376538e-01,-8.114123009517553164e-01,4.513005443676655091e+02
2.735298965503801139e+00,3.045627724044115969e-01,4.428586131522202152e+00,-3.429233739354384854e-03,6.613045375827241168e-01,-7.501096912641912473e-01,4.523885312563837147e+02
2.932971386576824102e+00,2.994570388658048254e-01,4.078218554397109230e+00,-5.802265158946593761e-03,7.679149245454658379e-01,-6.405255673112173476e-01,4.540945778548832550e+02
3.138175344819235768e+00,3.369304574546038156e-01,3.697066475233192318e+00,-9.397904824732060750e-03,9.036236158340238411e-01,-4.282242873681378903e-01,4.558006244533827953e+02
3.348605754341992480e+00,4.127170516796002109e-01,3.291342506810429835e+00,-1.386752141622065240e-02,9.993386844904506017e-01,-3.361376995617345459e-02,4.575066710518823356e+02
3.561965437717462102e+00,5.228509198522742762e-01,2.867095442880393641e+00,-1.618686051609931342e-02,8.883010940162366920e-01,4.589761997273817951e-01,4.592127176503818760e+02
3.775989083340834274e+00,6.635772615090076432e-01,2.430254380602574482e+00,-1.506033490966013876e-02,6.325365892809802215e-01,7.743840452470553970e-01,4.609187642488814163e+02
3.988466549590777177e+00,8.312646759395124763e-01,1.986672044965283268e+00,-1.309322016371370669e-02,4.188627244513141723e-01,9.079551672031868081e-01,4.626248108473809566e+02
4.197185462126050481e+00,1.022437770114520195e+00,1.542160012900026356e+00,-1.148695547229242053e-02,2.755435793274485512e-01,9.612199466019187843e-01,4.643308574458804969e+02
4.399874243494496184e+00,1.233811457267459000e+00,1.102523663068848858e+00,-1.031050388321676746e-02,1.798373151151627936e-01,9.836423301189531898e-01,4.660369040443800372e+02
4.594185082853808666e+00,1.462267255236596730e+00,6.736008799046713236e-01,-9.447025552661528908e-03,1.132657942360917325e-01,9.935198103532082436e-01,4.677429506428795776e+02
4.777676089548187122e+00,1.704830946381127754e+00,2.613009743702076615e-01,-8.797223974542795269e-03,6.489894619097909267e-02,9.978530631478976787e-01,4.694489972413791179e+02
4.947792495735899188e+00,1.958651441119597658e+00,-1.283559190900090963e-01,-8.294637932963819585e-03,2.840696034001763057e-02,9.995620258822369708e-01,4.711550438398786582e+02
5.101846764213691543e+00,2.220980697083907884e+00,-4.891987067487849616e-01,-7.896110403326194946e-03,0.000000000000000000e+00,9.999688252343162942e-01,4.728610904383781985e+02
5.238074673843522433e+00,2.489569466801770492e+00,-8.171625737114658339e-01,-1.156067170137023946e-02,0.000000000000000000e+00,9.999331732019961505e-01,4.745671370368777389e+02
5.356703426603265150e+00,2.763055852854415573e+00,-1.112560264436768032e+00,-1.522646011246032126e-02,0.000000000000000000e+00,9.998840707364247127e-01,4.762731836353772792e+02
5.458883654499824267e+00,3.040525086622134943e+00,-1.377785787423623010e+00,-1.889332836158228585e-02,0.000000000000000000e+00,9.998215051415034749e-01,4.779792302338768195e+02
5.545624131508684940e+00,3.321083509748694595e+00,-1.615031995533690701e+00,-2.256112888787797921e-02,0.000000000000000000e+00,9.997454653377051415e-01,4.796852768323763598e+02
5.617800159360892387e+00,3.603853037866982856e+00,-1.826305205575601276e+00,-2.622971387408222152e-02,0.000000000000000000e+00,9.996559418670425412e-01,4.813913234308759002e+02
5.676160817807718750e+00,3.887965679388160734e+00,-2.013438574267776726e+00,-2.989893527609385412e-02,0.000000000000000000e+00,9.995529268974985282e-01,4.830973700293754405e+02
5.721335138851427082e+00,4.172558077396264942e+00,-2.178104319756486884e+00,-3.356864485266718157e-02,0.000000000000000000e+00,9.994364142269159812e-01,4.848034166278749808e+02
5.753837255380714666e+00,4.456766042440053255e+00,-2.321824870168397226e+00,-3.723869419520995511e-02,0.000000000000000000e+00,9.993063992863427947e-01,4.865094632263745211e+02
5.774070566006911598e+00,4.739719043594382342e+00,-2.445983013524160921e+00,-4.090893475767406334e-02,0.000000000000000000e+00,9.991628791428314171e-01,4.882155098248740615e+02
5.781607244283952340e+00,4.924137269060676836e+00,-2.518410175168832144e+00,-4.457921788652488559e-02,0.000000000000000000e+00,9.990058525016887181e-01,4.893332482933421943e+02
5.784551732398831803e+00,5.203168310163110100e+00,-2.616226713750898991e+00,-4.824939485077518048e-02,0.000000000000000000e+00,9.988353197081759616e-01,4.910392948918417346e+02
5.775784159854659983e+00,5.478084045641466560e+00,-2.697404325833334671e+00,-5.191931687206963186e-02,0.000000000000000000e+00,9.986512827486567767e-01,4.927453414903412749e+02
5.755339300358925492e+00,5.747939505119215475e+00,-2.762908844179883694e+00,-5.558883515480549792e-02,0.000000000000000000e+00,9.984537452511917932e-01,4.944513880888408153e+02
5.723148500223135926e+00,6.011752540095940844e+00,-2.813601610151884369e+00,-5.925780091627552704e-02,0.000000000000000000e+00,9.982427124855792755e-01,4.961574346873403556e+02
5.679038777503699009e+00,6.268497377035063600e+00,-2.850245216206756194e+00,-6.292606541681865229e-02,0.000000000000000000e+00,9.980181913628419776e-01,4.978634812858398959e+02
5.622731014198357080e+00,6.517097859178252683e+00,-2.873508590045352307e+00,-6.659347998996430207e-02,0.000000000000000000e+00,9.977801904341587758e-01,4.995695278843394362e+02
5.553837223942320378e+00,6.756420334260870852e+00,-2.883971454303700721e+00,-7.025989607255610225e-02,0.000000000000000000e+00,9.975287198892438534e-01,5.012755744828389766e+02
5.471856869733552564e+00,6.985266142856512595e+00,-2.882128191521057037e+00,-7.392516523484060631e-02,0.000000000000000000e+00,9.972637915541712195e-01,5.029816210813385169e+02
5.376172198071327735e+00,7.202363659360472070e+00,-2.868391140151820284e+00,-7.758913921050715479e-02,0.000000000000000000e+00,9.969854188886478896e-01,5.046876676798380572e+02
5.266042547449346856e+00,7.406359834612965543e+00,-2.843093343595829658e+00,-8.125166992666406351e-02,0.000000000000000000e+00,9.966936169827358416e-01,5.063937142783375975e+02
5.140597580332318728e+00,7.595811185843817981e+00,-2.806490770574531890e+00,-8.491260953373779008e-02,0.000000000000000000e+00,9.963884025530260757e-01,5.080997608768371379e+02
4.998829378487227970e+00,7.769174175970229079e+00,-2.758764021655975007e+00,-8.857181043528038200e-02,0.000000000000000000e+00,9.960697939382645583e-01,5.098058074753366782e+02
4.839583331760355378e+00,7.924794920273998677e+00,-2.700019533305900055e+00,-9.222912531767150923e-02,0.000000000000000000e+00,9.957378110944352656e-01,5.115118540738362185e+02
4.661547740005343776e+00,8.060898154099376711e+00,-2.630290287492539569e+00,-9.588440717970089788e-02,0.000000000000000000e+00,9.953924755893009957e-01,5.132179006723357588e+02
4.463242036787540279e+00,8.175575390420886990e+00,-2.549536031576062456e+00,-9.953750936201789801e-02,0.000000000000000000e+00,9.950338105964069424e-01,5.149239472708353560e+02
4.243003531622336233e+00,8.266772190901814810e+00,-2.457643009948516255e+00,-1.031882855764336138e-01,0.000000000000000000e+00,9.946618408885485874e-01,5.166299938693349532e+02
3.998972554749361308e+00,8.332274468366165365e+00,-2.354423205634818217e+00,-1.068365899350628700e-01,0.000000000000000000e+00,9.942765928307107925e-01,5.183360404678345503e+02
3.729075874691274883e+00,8.369693732404805075e+00,-2.239613086798606822e+00,-1.104822769792917492e-01,0.000000000000000000e+00,9.938780943724793149e-01,5.200420870663341475e+02
3.668312187896441312e+00,8.374408270484519079e+00,-2.213738209699394055e+00,-1.141252017085581244e-01,0.000000000000000000e+00,9.934663750399309601e-01,5.204069414990062796e+02
3.368698628776013670e+00,8.379409280698356000e+00,-2.086404246844429711e+00,-1.177652196089313680e-01,0.000000000000000000e+00,9.930414659270077049e-01,5.221129880975058768e+02
