1.706651594153567153e+00,6.912000118766610690e+00,5.571071415982428165e-01,2.021518341886143211e-01,-4.050575357457925074e-01,8.916630690287251637e-01,2.023918166018426064e+02
1.568231126216885096e+00,6.925365189442051594e+00,7.877492547277279433e-01,2.670478494166835248e-01,-5.350915773042620449e-01,8.014751711812171386e-01,2.041695873502694667e+02
1.443425590397855673e+00,6.928270574531024906e+00,1.038186789979727243e+00,3.334731552962318379e-01,-6.681899032171801922e-01,6.650698519218795068e-01,2.059473580986963270e+02
1.332707516206669940e+00,6.919872802259531497e+00,1.305374886505425325e+00,3.907144271945505176e-01,-7.828859119432475255e-01,4.841816655583150442e-01,2.077251288471231874e+02
1.236625560067894813e+00,6.899257692860305546e+00,1.586366910584959822e+00,4.287511964601735115e-01,-8.591012977115964899e-01,2.794948511229151111e-01,2.095028995955500477e+02
1.155807139854493570e+00,6.865434339335044100e+00,1.878297176247650579e+00,4.450797432170642276e-01,-8.918192838639508180e-01,8.100856193157500440e-02,2.112806703439769080e+02
1.090961483825699352e+00,6.817328613498237821e+00,2.178364140563406881e+00,4.447340280283255121e-01,-8.911265642406911436e-01,-9.002827788135221720e-02,2.130584410924037684e+02
1.042883107879827520e+00,6.753776155640403012e+00,2.483813975064493196e+00,4.348545571143088706e-01,-8.713307797554014078e-01,-2.273415633089615751e-01,2.148362118408306287e+02
1.012285117127416756e+00,6.673502259140239978e+00,2.791889148955783995e+00,4.208829185151539698e-01,-8.433353993324657072e-01,-3.341301739366212553e-01,2.166139825892574891e+02
1.005092517573083377e+00,6.617583747859635324e+00,2.967430137788559019e+00,4.059514885689300412e-01,-8.134168569484508948e-01,-4.166010150741036311e-01,2.176269110486190641e+02
1.010748667281250679e+00,6.500437352396845725e+00,3.273075149433097408e+00,3.915716633458220519e-01,-7.846035810625011653e-01,-4.806962170107909604e-01,2.194046817970459244e+02
1.035047167085026532e+00,6.362765553986766243e+00,3.573604464894336363e+00,3.783535305516018687e-01,-7.581180222335275332e-01,-5.311362069035234779e-01,2.211824525454727848e+02
1.078288564958280737e+00,6.203965062618175708e+00,3.866609312981603708e+00,3.828391496864307353e-01,-7.005865491398889366e-01,-6.021732911975030689e-01,2.229602232938996451e+02
1.140313272745858475e+00,6.025628282211438425e+00,4.150603639286077673e+00,3.841037094019262854e-01,-6.347538973997476353e-01,-6.704862639603523800e-01,2.247379940423265055e+02
1.220804117220412710e+00,5.830395414996953463e+00,4.424531971213348847e+00,3.818366236870996411e-01,-5.618188216027777404e-01,-7.338667484660293949e-01,2.265157647907533658e+02
1.319575102510341047e+00,5.620809455215571404e+00,4.687279807991560965e+00,3.760025154815179738e-01,-4.836353752903131964e-01,-7.903916321162368641e-01,2.282935355391802261e+02
1.335206798680873996e+00,5.591354650585509845e+00,4.720812871580095660e+00,3.668586280352069684e-01,-4.024881614586226508e-01,-8.387002008595105806e-01,2.285307847296930390e+02
1.470688267086825762e+00,5.360924642844529409e+00,4.959817141433355836e+00,3.549082712986311727e-01,-3.207734676568037013e-01,-8.781483367923934580e-01,2.303085554781198994e+02
1.623673765917853062e+00,5.121473818555121404e+00,5.185246260328947976e+00,2.886231886811828629e-01,-2.633734134346529809e-01,-9.205058935451122526e-01,2.320863262265467597e+02
1.792070069402659449e+00,4.875693815233860029e+00,5.397026892227954953e+00,2.174621228806282169e-01,-2.016176643706515947e-01,-9.550186084710464707e-01,2.338640969749736200e+02
1.973097475431793368e+00,4.626391753360763914e+00,5.595447535250987592e+00,1.433501711749944063e-01,-1.371691833459323107e-01,-9.801200658920874442e-01,2.356418677234004804e+02
2.164074694848468372e+00,4.376376859973185596e+00,5.780718342956972400e+00,6.853749102924815151e-02,-7.198472938630524898e-02,-9.950481450958019725e-01,2.374196384718273407e+02
2.283973760957069388e+00,4.226765351171301255e+00,5.884632519401834294e+00,-4.730092251022989698e-03,-8.028414844100014922e-03,-9.999565844487389166e-01,2.384923302925625137e+02
2.488503579810136035e+00,3.983393222521346200e+00,6.043480470696890094e+00,-2.870736846868607393e-03,-7.024972758906788961e-03,-9.999712038992386587e-01,2.402701010409893740e+02
2.697137813059926614e+00,3.747313138969603052e+00,6.188124788881288474e+00,-1.011318818287005412e-03,-6.021472430772291905e-03,-9.999813593782702625e-01,2.420478717894162344e+02
2.908481447840550516e+00,3.521699424382159549e+00,6.317503303492704170e+00,8.481369324564343171e-04,-5.017927297442613226e-03,-9.999870504508453495e-01,2.438256425378430947e+02
3.121182454413302221e+00,3.309799402455906758e+00,6.430464323580252106e+00,2.707605500246370884e-03,-4.014350799184175297e-03,-9.999882768613420625e-01,2.456034132862699551e+02
3.333924462780557985e+00,3.114952155768782927e+00,6.525759884056682836e+00,4.567061978785277518e-03,-3.010756377883772733e-03,-9.999850385335348202e-01,2.473811840346968154e+02
3.545419810212229628e+00,2.940607883701781056e+00,6.602038427488497341e+00,6.426481462261418760e-03,-2.007157476148386209e-03,-9.999773355706024214e-01,2.491589547831236757e+02
3.754402923958290117e+00,2.790347970069195771e+00,6.657836878409390202e+00,8.285839047016779063e-03,-1.003567536404920179e-03,-9.999651682551181642e-01,2.509367255315505361e+02
3.767600362838621653e+00,2.782001300118674969e+00,6.660263868085595007e+00,1.014510983321466504e-02,0.000000000000000000e+00,-9.999485370490184266e-01,2.510506763340810323e+02
3.969436885426274486e+00,2.673106220192801086e+00,6.679335144470800678e+00,7.609306965102442116e-03,5.928468303426639822e-03,-9.999534747732446993e-01,2.528284470825078927e+02
4.165035935883282470e+00,2.593136950258053020e+00,6.674609790514685059e+00,5.072976788470510978e-03,1.185718314390341033e-02,-9.999168325987894956e-01,2.546062178309347530e+02
4.351998018674824387e+00,2.543085122296107947e+00,6.644336455599094471e+00,2.536435656171228976e-03,1.778540491825309974e-02,-9.998386099096472357e-01,2.563839885793615849e+02
4.527881585231515515e+00,2.524138439731609562e+00,6.586613972764095770e+00,0.000000000000000000e+00,2.371239420780988857e-02,-9.997188216498343882e-01,2.581617593277884453e+02
4.669642160287988730e+00,2.535100556500282210e+00,6.511810159341192339e+00,-6.345364055597024766e-02,1.577130793650785220e-02,-9.978601612180765246e-01,2.597071840648384295e+02
4.819687386103088222e+00,2.577882740512817961e+00,6.398796505053165440e+00,-1.316478894276838785e-01,7.128033295025491649e-03,-9.912709137014871219e-01,2.614849548132652899e+02
4.957267001133981665e+00,2.648476198724721176e+00,6.261338047244864313e+00,-2.040482847996129556e-01,-2.174459474168396501e-03,-9.789584103506805413e-01,2.632627255616921502e+02
5.082888029436902322e+00,2.744616799728473389e+00,6.101897542017137077e+00,-2.797471735312432317e-01,-1.204513862870983804e-02,-9.599981424652318518e-01,2.650404963101190106e+02
5.196968249128021355e+00,2.864186720514247053e+00,5.922808840171009059e+00,-3.574455201526487436e-01,-2.233949203566586855e-02,-9.336667752567781031e-01,2.668182670585458709e+02
5.299839844325174631e+00,3.005202727530209117e+00,5.726290573173817400e+00,-4.354998374003590245e-01,-3.286188964945722241e-02,-8.995887881876517556e-01,2.685960378069727312e+02
5.391752454878763423e+00,3.165805220880449244e+00,5.514459163466771230e+00,-5.120471379389390787e-01,-4.337817267731564064e-02,-8.578613306728064547e-01,2.703738085553995916e+02
5.472875648107672575e+00,3.344247982187189550e+00,5.289341235407443165e+00,-5.851967306046127471e-01,-5.363807193465034567e-02,-8.091154081642528695e-01,2.721515793038264519e+02
5.543300832848626847e+00,3.538888570593877514e+00,5.052885499625906718e+00,-6.532497611503657042e-01,-6.340330758227002983e-02,-7.544831145523525073e-01,2.739293500522533122e+02
5.603042632371121989e+00,3.748179315040464754e+00,4.806974180486323078e+00,-7.148910492402463790e-01,-7.247449601824593191e-02,-6.954697945583839802e-01,2.757071208006801726e+02
5.652039729083658592e+00,3.970658854324955023e+00,4.553434053666311598e+00,-7.693047400937224056e-01,-8.071006393709956317e-02,-6.337634436038412922e-01,2.774848915491070329e+02
5.690155190434735388e+00,4.204944179592787101e+00,4.294047158579220813e+00,-8.161931558196126035e-01,-8.803337522281923233e-02,-5.710331489853281983e-01,2.792626622975338933e+02
5.717176281969553742e+00,4.449723136783906519e+00,4.030561248456792534e+00,-8.557113012275276986e-01,-9.442848124628869244e-02,-5.087646124496187916e-01,2.810404330459607536e+02
5.732813770118910135e+00,4.703747349234651765e+00,3.764700039372657514e+00,-8.883509905263627937e-01,-9.992808853475400321e-02,-4.481594523745097147e-01,2.828182037943876139e+02
5.736700713948903463e+00,4.965825523093908345e+00,3.498173318310079605e+00,-9.148120321047221726e-01,-1.045983586961785478e-01,-3.901001528767892856e-01,2.845959745428144743e+02
5.728390741768851768e+00,5.234817100484619345e+00,3.232686969548553169e+00,-9.423021583029862480e-01,6.061293629692104251e-02,-3.292304882768289365e-01,2.863737452912413346e+02
5.707355805157127371e+00,5.509626227433565226e+00,2.969952978164107638e+00,-9.385067085550785615e-01,2.356739474180863381e-01,-2.523151769226140151e-01,2.881515160396681949e+02
5.672983399599440091e+00,5.789196005517079691e+00,2.711699469305538290e+00,-9.003837555915094049e-01,4.021147721013034193e-01,-1.661710044648164464e-01,2.899292867880950553e+02
5.624573237519988389e+00,6.072502997943021619e+00,2.459680842118321387e+00,-8.351919860094663139e-01,5.440521584196161831e-01,-8.038404956532353707e-02,2.917070575365219156e+02
5.561984926722590927e+00,6.358450046026433711e+00,2.215096261299456692e+00,-8.381521838637200350e-01,5.445823923064467831e-01,-3.051122210374383054e-02,2.934848282849487759e+02
5.532734447420763146e+00,6.468601144013553572e+00,2.124246303174265105e+00,-8.389874932664156404e-01,5.435783549125902114e-01,2.495111646917517328e-02,2.941663745477089833e+02
5.443908060202225840e+00,6.756153495764075423e+00,1.894704837274214571e+00,-8.368923561473422534e-01,5.405065751405954133e-01,8.639343986631066452e-02,2.959441452961358436e+02
5.344252408753535022e+00,7.042772398317950433e+00,1.672354102490062333e+00,-8.308757018410357631e-01,5.347184642635408602e-01,1.540186094788760784e-01,2.977219160445627040e+02
5.235238401136358632e+00,7.327045408261161796e+00,1.456791869922115179e+00,-8.197769250556228293e-01,5.254642812757167603e-01,2.277127186824274563e-01,2.994996867929895643e+02
5.118269516794560658e+00,7.607534287390758543e+00,1.247655719175699618e+00,-8.023311845919449681e-01,5.119397777523131410e-01,3.068914045492290854e-01,3.012774575414164246e+02
4.994689875431709503e+00,7.882767077829479163e+00,1.044620913091343750e+00,-7.773051106750139549e-01,4.933783603622178271e-01,3.903518392998729936e-01,3.030552282898432850e+02
4.865791886624813323e+00,8.151229913394486104e+00,8.473984934528965285e-01,-7.437101595242012753e-01,4.691918860027269877e-01,4.761871194495826409e-01,3.048329990382701453e+02
4.732823523117401621e+00,8.411358522405295801e+00,6.557335865071868275e-01,-7.010669915680244335e-01,4.391407657114431706e-01,5.618366855449428154e-01,3.066107697866970057e+02
4.596995258119489058e+00,8.661529374956723260e+00,4.694039083590522132e-01,-6.496472806793607280e-01,4.034840871418154951e-01,6.443283341040090262e-01,3.083885405351238660e+02
4.459486704544667113e+00,8.900050425267330922e+00,2.882184614767135389e-01,-5.905884378350529929e-01,3.630423390942219553e-01,7.206979652535087100e-01,3.101663112835507263e+02
4.321452991924064513e+00,9.125151397026396438e+00,1.120164146635700131e-01,-5.258002459075755697e-01,3.191232843736774849e-01,7.884760178813875475e-01,3.119440820319775867e+02
4.184030914735161311e+00,9.334973556686509966e+00,-5.933384007079913619e-02,-4.576677935806375830e-01,2.733185377241673653e-01,8.460716090588041860e-01,3.137218527804044470e+02
4.048344884052865744e+00,9.527558916365119757e+00,-2.259354592712596310e-01,-3.886525588136367504e-01,2.272405929974481154e-01,8.929226738199566027e-01,3.154996235288313073e+02
3.915512712761020087e+00,9.700838804406082261e+00,-3.878637529554825880e-01,-3.209324772620135713e-01,1.822921874935201358e-01,9.293932985648726275e-01,3.172773942772581677e+02
3.786651263041552973e+00,9.852621737689714720e+00,-5.451666262370891136e-01,-2.561802921460735183e-01,1.395299838437865925e-01,9.565056411357463206e-01,3.190551650256850280e+02
3.662881983471886205e+00,9.980580525442707795e+00,-6.978648602433387138e-01,-1.955001676554355694e-01,9.963209921399503177e-02,9.756296065889499269e-01,3.208329357741118883e+02
3.545336361798598013e+00,1.008223852955936906e+01,-8.459522339748513087e-01,-1.394820612325104736e-01,6.294064159810015824e-02,9.882222575056431868e-01,3.226107065225387487e+02
3.435161318306439338e+00,1.015495500127491013e+01,-9.893954878219132221e-01,-8.831447418878428379e-02,2.953968395699568469e-02,9.956545388439101973e-01,3.243884772709656090e+02
3.333524563655130724e+00,1.019590940839895232e+01,-1.128134128523396340e+00,-4.190760977280377081e-02,-6.623310094519842782e-04,9.991212706977888880e-01,3.261662480193924694e+02
3.241619944101536532e+00,1.020208466118886470e+01,-1.262080074424996257e+00,0.000000000000000000e+00,-2.786260007479053613e-02,9.996117623943168162e-01,3.279440187678193297e+02
3.195097834463181741e+00,1.018465921943128905e+01,-1.335821868408381352e+00,0.000000000000000000e+00,-3.677659046329879999e-02,9.993235123791968100e-01,3.289605982695354669e+02
3.124223369659188787e+00,1.011821082926547177e+01,-1.459357671995389572e+00,0.000000000000000000e+00,-4.569333770623251745e-02,9.989555139690977636e-01,3.307383690179623272e+02
3.063193695932405092e+00,1.001802756617418311e+01,-1.576872421392568668e+00,0.000000000000000000e+00,-5.461071023353653020e-02,9.985077217166568042e-01,3.325161397663891876e+02
3.011371405048840266e+00,9.886544594900295024e+00,-1.687729644415607577e+00,0.000000000000000000e+00,-6.352657296410228749e-02,9.979801473613774121e-01,3.342939105148160479e+02
2.968193326064496596e+00,9.726018114565819772e+00,-1.791253828375720003e+00,0.000000000000000000e+00,-7.243878985593504849e-02,9.973728599296290964e-01,3.360716812632429082e+02
2.933165742195293468e+00,9.538538020852197263e+00,-1.886726458795257244e+00,0.000000000000000000e+00,-8.134522646230843423e-02,9.966859857205757622e-01,3.378494520116697686e+02
2.905860121400471563e+00,9.326039628439241724e+00,-1.973381805956267998e+00,0.000000000000000000e+00,-9.024375248677697636e-02,9.959197081778757843e-01,3.396272227600966289e+02
2.885909327778988231e+00,9.090314518457166315e+00,-2.050402434573716182e+00,0.000000000000000000e+00,-9.913224432991428470e-02,9.950742676474526593e-01,3.414049935085234893e+02
2.875512242495267490e+00,8.881307305737262681e+00,-2.104461281718341237e+00,0.000000000000000000e+00,-1.080085876206762080e-01,9.941499610220717598e-01,3.428491341273150965e+02
2.869635524744992505e+00,8.603948924104615870e+00,-2.159658694453845396e+00,0.000000000000000000e+00,-1.168706797253571267e-01,9.931471412739065752e-01,3.446269048757419569e+02
2.870235412627950122e+00,8.308123569285337240e+00,-2.202795924972868580e+00,3.193188055710899451e-04,-5.899902814558839054e-02,9.982579890556230184e-01,3.464046756241688172e+02
2.876689848270983951e+00,7.995789997012241024e+00,-2.233609692787532630e+00,6.397320921535262989e-04,-5.304815835039499838e-04,9.999996546660102625e-01,3.481824463725956775e+02
2.885906755459686668e+00,7.739529976028416414e+00,-2.248068332650021706e+00,9.579563961502605323e-04,5.793987887601378256e-02,9.983196145300240465e-01,3.495766345819544085e+02
2.902340851257781740e+00,7.400281078500995591e+00,-2.253995268777588379e+00,1.270775055453924251e-03,1.158169168312461056e-01,9.932697654245107310e-01,3.513544053303812689e+02
2.922543952456036820e+00,7.050439743282602478e+00,-2.247337222270175072e+00,1.905771963543495323e-03,1.075925926247731090e-01,9.941932418023684548e-01,3.531321760788081292e+02
2.945429777869281285e+00,6.691910896219773974e+00,-2.228236991180181370e+00,2.541164349410428812e-03,9.935402173578654350e-02,9.950489037472851628e-01,3.549099468272349895e+02
2.969781146821976581e+00,6.326566205680001609e+00,-2.196907180865061093e+00,3.176820882705657604e-03,9.110288617678957701e-02,9.958364182632297723e-01,3.566877175756618499e+02
2.994405146444270471e+00,5.956247340757687248e+00,-2.153488681025424789e+00,3.812609795672036728e-03,8.284087927385634653e-02,9.965554940532314054e-01,3.584654883240887102e+02
3.018125855054677231e+00,5.582776624114565323e+00,-2.098051491899517007e+00,4.448399018916450454e-03,7.456970393957879084e-02,9.972058819524340922e-01,3.602432590725155706e+02
3.039777255210384332e+00,5.207967631006186870e+00,-2.030595134754407560e+00,5.084056318080582698e-03,6.629107092463429329e-02,9.977873752894549364e-01,3.620210298209424309e+02
3.058196294227931045e+00,4.833635795387499101e+00,-1.951048649080482367e+00,5.719449431081612828e-03,5.800669705214686611e-02,9.982998101749323006e-01,3.637988005693692912e+02
3.072216051362170575e+00,4.461609084377429646e+00,-1.859270176472560765e+00,6.354446205591164458e-03,4.971830343908413552e-02,9.987430657163830494e-01,3.655765713177961516e+02
3.080658971979408189e+00,4.093738803100341883e+00,-1.755046128757672630e+00,6.988914736419439902e-03,4.142761370898571244e-02,9.991170641587432399e-01,3.673543420662230119e+02
3.082330129981512901e+00,3.731910593016259714e+00,-1.638089935492055726e+00,7.622723502471421761e-03,3.313635220035115320e-02,9.994217709502125624e-01,3.691321128146498722e+02
3.076010480440010131e+00,3.378055688307956217e+00,-1.508040363482524127e+00,8.255741502943491142e-03,2.484624217503087970e-02,9.996571947332827390e-01,3.709098835630767326e+02
3.060450064889383093e+00,3.034162496725463232e+00,-1.364459398477306351e+00,8.887838392431719400e-03,1.655900403095936571e-02,9.998233872610765571e-01,3.726876543115035929e+02
3.034361132013626783e+00,2.702288573507895642e+00,-1.206829676603758728e+00,9.518884614627413226e-03,8.276353523546274224e-03,9.999204432393842268e-01,3.744654250599304532e+02
2.996411136543843945e+00,2.384573059622860480e+00,-1.034551450490523550e+00,1.014875153428117759e-02,-0.000000000000000000e+00,9.999485000950276703e-01,3.762431958083573136e+02
2.993857143398672260e+00,2.368713878825342789e+00,-1.025041478477453971e+00,1.064529442313578632e-05,0.000000000000000000e+00,9.999999999433388798e-01,3.763350550075784895e+02
2.933009004222792981e+00,2.073613739697525382e+00,-8.290016597348703886e-01,7.112053669818346929e-06,4.617898014586960947e-02,9.989331818205390290e-01,3.781128257560053498e+02
2.860460072065253545e+00,1.796646782777643558e+00,-6.173866189638842483e-01,3.556026798476014661e-06,9.235795934548869657e-02,9.957258695709837459e-01,3.798905965044322102e+02
2.777585965509896671e+00,1.539447703809629697e+00,-3.898219772833816377e-01,-0.000000000000000000e+00,1.382410334876689184e-01,9.903986150334931349e-01,3.816683672528590705e+02
2.749503585767444136e+00,1.466949861617451667e+00,-3.152152593218640608e-01,2.762886240851915656e-03,1.447425731067978061e-01,9.894654890343792530e-01,3.822131194261802420e+02
2.650291088045306331e+00,1.251742177082558527e+00,-5.653230574477936116e-02,6.102868045533478038e-03,1.525927441942456497e-01,9.882703119192078889e-01,3.839908901746071024e+02
2.544829580378421774e+00,1.058998995397473886e+00,2.161135788729310891e-01,1.022079696833890460e-02,1.622572483370576246e-01,9.866955562236096045e-01,3.857686609230339627e+02
2.435049498002136215e+00,8.893537407869179789e-01,5.011789597608125035e-01,1.542225443128333352e-02,1.744424098858955996e-01,9.845465960031846153e-01,3.875464316714608231e+02
2.322861501509554394e+00,7.435595614067264103e-01,7.971932314513212603e-01,2.219533051712088353e-02,1.902719292898174819e-01,9.814804940637213981e-01,3.893242024198876834e+02
2.210168822186489912e+00,6.224938696201953725e-01,1.102749993978560328e+00,3.136874140867237232e-02,2.116437117601717155e-01,9.768433555769384657e-01,3.911019731683145437e+02
2.098879603955418727e+00,5.271635097179699914e-01,1.416498805583779719e+00,4.446481953974194823e-02,2.420187876711673014e-01,9.692521788665097171e-01,3.928797439167414041e+02
1.990919320454533015e+00,4.587105831549236346e-01,1.737137263566070011e+00,6.458761070954210926e-02,2.883773160184123774e-01,9.553360477595563838e-01,3.946575146651682644e+02
1.888243346487323837e+00,4.184189645817157355e-01,2.063403366840235620e+00,9.902175527812391576e-02,3.667978244323279458e-01,9.250157014739536221e-01,3.964352854135951247e+02
1.792849764282260727e+00,4.077215453412678103e-01,2.394068115411909670e+00,1.680716542022678839e-01,5.202935370563536166e-01,8.372852287907043278e-01,3.982130561620219851e+02
1.706589551887722545e+00,4.278545894382833059e-01,2.727841003095337946e+00,3.202658732585201284e-01,8.319741431114291430e-01,4.530439223960086026e-01,3.999908269104488454e+02
1.630519099826272855e+00,4.787829219889638832e-01,3.063329158361123739e+00,3.493808995264640060e-01,7.626428485680706304e-01,-5.443426058780055365e-01,4.017685976588757057e+02
1.564643818601952230e+00,5.588311164467237857e-01,3.399170485470436986e+00,2.184931172532957322e-01,4.002257369037282020e-01,-8.899888298359733829e-01,4.035463684073025661e+02
1.508561256269149720e+00,6.657657485637823447e-01,3.734058968479643692e+00,1.540338248221148343e-01,2.357985758229152462e-01,-9.595168640782479885e-01,4.053241391557294264e+02
1.461908950033437460e+00,7.975146184661573434e-01,4.066683003813429842e+00,1.211017601701703805e-01,1.538012226236765700e-01,-9.806526131118749046e-01,4.071019099041562868e+02
1.424363575554065564e+00,9.521542407806753427e-01,4.395717708866466289e+00,1.016338666140565172e-01,1.058832127097269898e-01,-9.891710177837516049e-01,4.088796806525831471e+02
1.395640227146867529e+00,1.127898215405103155e+00,4.719817152734910870e+00,8.887809586503674086e-02,7.469777659306113538e-02,-9.932375980838917817e-01,4.106574514010100074e+02
1.375491831708692825e+00,1.323086409477927772e+00,5.037606463518476296e+00,7.990318619044346760e-02,5.285331126324423201e-02,-9.954004261226363504e-01,4.124352221494368678e+02
1.363708699412741643e+00,1.536174885834620918e+00,5.347673765910350596e+00,7.325570561888437859e-02,3.672471640198528287e-02,-9.966367928184636238e-01,4.142129928978637281e+02
1.360118214509294043e+00,1.765726517597903555e+00,5.648561901795360107e+00,6.813864404410074904e-02,2.433858638919273246e-02,-9.973789442335381228e-01,4.159907636462905884e+02
1.364584669908250669e+00,2.010402232553613278e+00,5.938759885305316288e+00,6.408011244480260604e-02,1.453264184308475197e-02,-9.978389356555105172e-01,4.177685343947174488e+02
1.377009249615781750e+00,2.268952834632699478e+00,6.216694042223265271e+00,6.078349555112069758e-02,6.579207679328196237e-03,-9.981292905705647645e-01,4.195463051431443091e+02
1.387688389364110986e+00,2.413409880984063616e+00,6.357389601246555166e+00,5.805322569842741309e-02,0.000000000000000000e+00,-9.983134893338903026e-01,4.204931201694295169e+02
1.415205157623472321e+00,2.695954755610533216e+00,6.606727281448114830e+00,5.483289903078379657e-02,0.000000000000000000e+00,-9.984955448993649840e-01,4.222708909178563772e+02
1.450064969982578278e+00,2.987830833675762410e+00,6.840790696382981650e+00,5.161146519751304979e-02,0.000000000000000000e+00,-9.986672402057483744e-01,4.240486616662832375e+02
1.491759694670586223e+00,3.286710311604001067e+00,7.059431045084778589e+00,4.838902439709615727e-02,0.000000000000000000e+00,-9.988285650290029682e-01,4.258264324147100979e+02
1.539802370908996521e+00,3.590310707226635145e+00,7.262409083876807614e+00,4.516567696621293093e-02,0.000000000000000000e+00,-9.989795101122864729e-01,4.276042031631369582e+02
1.593724645433223452e+00,3.896381277996051384e+00,7.449393723415909996e+00,4.194152336414953830e-02,0.000000000000000000e+00,-9.991200671680529055e-01,4.293819739115638185e+02
1.653074206450148020e+00,4.202689647148956098e+00,7.619960087143151206e+00,3.871666415716432802e-02,0.000000000000000000e+00,-9.992502288799043342e-01,4.311597446599906789e+02
1.717412201235898772e+00,4.507008559289943150e+00,7.773587019756078575e+00,3.549120000281767717e-02,0.000000000000000000e+00,-9.993699889041894879e-01,4.329375154084175392e+02
1.786310622827595562e+00,4.807102687745051561e+00,7.909654031092111737e+00,3.226523163427148788e-02,0.000000000000000000e+00,-9.994793418713499022e-01,4.347152861568443996e+02
1.859349650430998091e+00,5.100715416463843965e+00,8.027437657501581114e+00,2.903885984456416880e-02,0.000000000000000000e+00,-9.995782833870130446e-01,4.364930569052712599e+02
1.936114927245146555e+00,5.385555519230755372e+00,8.126107219372936896e+00,2.581218547086663873e-02,0.000000000000000000e+00,-9.996668100328316431e-01,4.382708276536981202e+02
2.016194758385507324e+00,5.659283658483349910e+00,8.204719949931922329e+00,2.258530937872527816e-02,0.000000000000000000e+00,-9.997449193670688850e-01,4.400485984021249806e+02
2.099177210459127529e+00,5.919498625124188784e+00,8.262215466749463388e+00,1.935833244629744584e-02,0.000000000000000000e+00,-9.998126099249291521e-01,4.418263691505518409e+02
2.184647093098569748e+00,6.163723239350075822e+00,8.297409553538889426e+00,1.613135554858535423e-02,0.000000000000000000e+00,-9.998698812186339602e-01,4.436041398989787012e+02
2.272182801384583950e+00,6.389389830699450989e+00,8.308987215778245172e+00,1.290447954167408748e-02,0.000000000000000000e+00,-9.999167337372439901e-01,4.453819106474055616e+02
2.361352996568439000e+00,6.593825213226604198e+00,8.295494969434562549e+00,9.677805246979406806e-03,0.000000000000000000e+00,-9.999531689462268780e-01,4.471596813958324219e+02
2.451713100830917202e+00,6.774235068940110516e+00,8.255332317570299949e+00,6.451433435511215973e-03,0.000000000000000000e+00,-9.999791892867706533e-01,4.489374521442592822e+02
2.542801579971976089e+00,6.927687649375400269e+00,8.186742364850164932e+00,3.225464812158277631e-03,0.000000000000000000e+00,-9.999947981748431580e-01,4.507152228926861426e+02
2.634135985897631649e+00,7.051096701389251820e+00,8.087801514910662348e+00,-0.000000000000000000e+00,-0.000000000000000000e+00,-1.000000000000000000e+00,4.524929936411130029e+02
2.665432541130326793e+00,7.082638615445638663e+00,8.043040441132809804e+00,0.000000000000000000e+00,1.338196392853091467e-03,-9.999991046148062335e-01,4.531040394977250116e+02
2.756206838683540106e+00,7.142864279545819706e+00,7.882490768167702555e+00,0.000000000000000000e+00,2.676399980421175114e-03,-9.999964184351585184e-01,4.548818102461518720e+02
2.847216006097692098e+00,7.172729468738317848e+00,7.694100027930478980e+00,0.000000000000000000e+00,4.014603573374480976e-03,-9.999919414466041934e-01,4.566595809945787323e+02
2.938998952007848775e+00,7.174282584247406724e+00,7.480962906253622258e+00,0.000000000000000000e+00,5.352799982305816648e-03,-9.999856736635527321e-01,4.584373517430055927e+02
3.032115622603313909e+00,7.149401030719954697e+00,7.246028973276874119e+00,0.000000000000000000e+00,6.690982017923691877e-03,-9.999776151292767423e-01,4.602151224914324530e+02
3.127148933993584734e+00,7.099802067649823911e+00,6.992119980062064144e+00,0.000000000000000000e+00,8.029142491245429281e-03,-9.999677659159095233e-01,4.619928932398593133e+02
3.224386817788138515e+00,7.027287646166302970e+00,6.721825627469616649e+00,3.132319051570236037e-05,2.054639572319964108e-02,-9.997889000392250480e-01,4.637706639882861737e+02
3.269582882198736051e+00,6.984799405592241328e+00,6.592244724811710199e+00,6.287320710529902164e-05,3.315302003513252715e-02,-9.994502855617731774e-01,4.645802654227871358e+02
3.370296465363901373e+00,6.872421728824573250e+00,6.295153430842260533e+00,9.463730792857431731e-05,4.584389641144834271e-02,-9.989486113937975365e-01,4.663580361712139961e+02
3.471823930987016915e+00,6.742563875370027660e+00,5.987249925970528075e+00,1.266021488855667359e-04,5.861366647432620508e-02,-9.982807330978257232e-01,4.681358069196408564e+02
3.573591409815561004e+00,6.597271480911645725e+00,5.670444914685434767e+00,1.587538003541631823e-04,7.145673928830349741e-02,-9.974436872362841822e-01,4.699135776680677168e+02
3.675043248005455787e+00,6.438504180510761010e+00,5.346596901940326774e+00,1.910777670368718440e-04,8.436729940554095475e-02,-9.964347054776357959e-01,4.716913484164945771e+02
3.775638041515974042e+00,6.268146991497938636e+00,5.017523091641094446e+00,2.235590109277454354e-04,9.733931615534180404e-02,-9.952512283598443643e-01,4.734691191649214375e+02
3.874844848562658317e+00,6.088021290110688710e+00,4.685010042940527697e+00,2.561819773841597365e-04,1.103665541709829417e-01,-9.938909186078812574e-01,4.752468899133482978e+02
3.972139554544096285e+00,5.899895445017735440e+00,4.350824146828243144e+00,2.889306242606273626e-04,1.234425851359069182e-01,-9.923516739009708987e-01,4.770246606617751581e+02
4.067001365282548520e+00,5.705495169060632143e+00,4.016721984452649608e+00,3.217884540333641719e-04,1.365608007199496376e-01,-9.906316389854087356e-01,4.788024314102020185e+02
4.158909405686102012e+00,5.506513649082950046e+00,3.684460627917580666e+00,3.547385488152893880e-04,1.497144266646841526e-01,-9.887292170301366090e-01,4.805802021586288788e+02
4.247339402062184632e+00,5.304621512599017485e+00,3.355807943957246131e+00,3.877636081319185278e-04,1.628965379653040113e-01,-9.866430801248760041e-01,4.823579729070557391e+02
4.331760427296299731e+00,5.101476689273286347e+00,3.032552960909585593e+00,4.208459892996251170e-04,1.761000750849163188e-01,-9.843721788245237692e-01,4.841357436554825995e+02
4.411631688964267717e+00,4.898734224733301446e+00,2.716516359781824708e+00,4.539677502194344803e-04,1.893178611258421185e-01,-9.819157506487092846e-01,4.859135144039094598e+02
4.486399341182683465e+00,4.698056104121542731e+00,2.409561150931398554e+00,4.871106943723208351e-04,2.025426198717044934e-01,-9.792733274518803377e-01,4.876912851523363202e+02
4.555493301625635816e+00,4.501121143005724967e+00,2.113603598971366182e+00,5.202564177763500551e-04,2.157669946039058317e-01,-9.764447415869768054e-01,4.894690559007631805e+02
4.618324055650616877e+00,4.309635003815105669e+00,1.830624459963929640e+00,5.533863576423858708e-04,2.289835675867223086e-01,-9.734301307946020554e-01,4.912468266491900408e+02
4.674279429892305160e+00,4.125340396857790637e+00,1.562680596799717936e+00,5.864818424438721740e-04,2.421848801068503809e-01,-9.702299417595187103e-01,4.930245973976169012e+02
4.722721318004527546e+00,3.950027526206696393e+00,1.311917040880229868e+00,6.195241430977991128e-04,2.553634529459711255e-01,-9.668449322871516260e-01,4.948023681460437615e+02
4.763334453380865696e+00,3.785543862732569043e+00,1.080750645966630286e+00,6.524945249387178103e-04,2.685118071588984412e-01,-9.632761720644591463e-01,4.965801388944706218e+02
4.796477162822050389e+00,3.633800352376856502e+00,8.720553360090186334e-01,6.853743001558630426e-04,2.816224850252611600e-01,-9.595250419818470711e-01,4.983579096428974822e+02
4.822831932470541538e+00,3.496777992015014824e+00,6.890078830084155337e-01,7.181448803553482866e-04,2.946880710395324288e-01,-9.555932320056114149e-01,5.001356803913243425e+02
4.843057968700192006e+00,3.376538707358855085e+00,5.349354608328746874e-01,7.507878289051505118e-04,3.077012128026309634e-01,-9.514827376034868944e-01,5.019134511397512028e+02
4.857795834078999064e+00,3.275237647307604583e+00,4.133351561488494696e-01,7.832849127203544591e-04,3.206546416783245812e-01,-9.471958547390770811e-01,5.036912218881780632e+02
4.867672077904215300e+00,3.195135987599405425e+00,3.278944757339030125e-01,8.156181531498843179e-04,3.335411930792731017e-01,-9.427351734640451175e-01,5.054689926366049235e+02
4.873303893332159298e+00,3.138614318932633651e+00,2.825129704330200386e-01,8.477698756336930026e-04,3.463538262507448451e-01,-9.381035701497499879e-01,5.072467633850317839e+02
4.875303833925278774e+00,3.108186697890076289e+00,2.813251025637363845e-01,8.797227578109866964e-04,3.590856434247812201e-01,-9.333041984123291446e-01,5.090245341334586442e+02
4.873543191209709136e+00,3.105250931997252550e+00,3.266541670690428778e-01,9.114598757753747350e-04,3.717299082237922603e-01,-9.283404787968829730e-01,5.108023048818855045e+02
4.866663184371292417e+00,3.128036714374601512e+00,4.138527526303614756e-01,9.429647481915643878e-04,3.842800632001450167e-01,-9.232160872972136056e-01,5.125185857594846084e+02
4.851805523491498739e+00,3.176150864890942227e+00,5.458671116829213465e-01,9.742213780101147960e-04,3.967297464071288804e-01,-9.179349427973868547e-01,5.142963565079114687e+02
4.826770800643431336e+00,3.246903042054274380e+00,7.164944224847753507e-01,1.005214291541401631e-03,4.090728069066036920e-01,-9.125011935300580967e-01,5.160741272563383291e+02
4.789012465772934490e+00,3.338551806474549632e+00,9.228545584887981601e-01,1.035928574676967884e-03,4.213033191294932589e-01,-9.069192026539412144e-01,5.178518980047651894e+02
4.735894562320605239e+00,3.449500180389034387e+00,1.162276934407141971e+00,1.066349906075374091e-03,4.334155960169034927e-01,-9.011935330589041504e-01,5.196296687531920497e+02
4.664677278028536378e+00,3.578287066787354309e+00,1.431182602379946545e+00,1.096464587160066130e-03,4.454042008818314136e-01,-8.953289315118920788e-01,5.214074395016189101e+02
4.573945264312860637e+00,3.723575574835204627e+00,1.724662328966766411e+00,1.126259568808146098e-03,4.572639579439975455e-01,-8.893303122601712296e-01,5.231852102500457704e+02
4.465043647102757696e+00,3.884126096238649684e+00,2.038251357629024429e+00,1.155722474640827162e-03,4.689899615030922453e-01,-8.832027402102473612e-01,5.249629809984726307e+02
4.340643231789989009e+00,4.058769948346509615e+00,2.368304162558547699e+00,1.184841620858229907e-03,4.805775837284744223e-01,-8.769514138012634019e-01,5.267407517468994911e+02
4.203313415523466823e+00,4.246399403213840351e+00,2.711271763342890662e+00,1.213606032592667167e-03,4.920224810559349349e-01,-8.705816476907607404e-01,5.285185224953263514e+02
4.055537901631835140e+00,4.445961956902176659e+00,3.063680913340684153e+00,1.242005456785142499e-03,5.033205991943433544e-01,-8.640988553684656459e-01,5.302962932437532118e+02
3.899729859017852629e+00,4.656454794620008997e+00,3.422113732174369538e+00,1.270030371619150500e-03,5.144681767567019781e-01,-8.575085318103197185e-01,5.320740639921800721e+02
3.738246617876892941e+00,4.876919423421500532e+00,3.783187662897037562e+00,1.297671992573572620e-03,5.254617475411674787e-01,-8.508162362804214673e-01,5.338518347406069324e+02
3.573403990104903727e+00,5.106436444414379494e+00,4.143535636296888924e+00,1.324922275182279820e-03,5.362981414978775785e-01,-8.440275753829890037e-01,5.356296054890337928e+02
3.407490300329232724e+00,5.344120436517687089e+00,4.499786326018595517e+00,1.351773914611663656e-03,5.469744844267991901e-01,-8.371481864600324174e-01,5.374073762374606531e+02
3.242780211553422554e+00,5.589114923762035225e+00,4.848544378717109637e+00,1.378220342188549077e-03,5.574881964602468321e-01,-8.301837214232700157e-01,5.391851469858875134e+02
3.081548427936242618e+00,5.840587397923117763e+00,5.186370503315291813e+00,1.404255719029633013e-03,5.678369893911263677e-01,-8.231398311010698077e-01,5.409629177343143738e+02
2.925712285297698223e+00,6.097673539953166078e+00,5.509349153692196133e+00,1.356903937297209697e-03,5.466700659691312580e-01,-8.373469996274010008e-01,5.427406884827412341e+02
2.776471626454742658e+00,6.359425283377336591e+00,5.812653418559065699e+00,1.307889184409152241e-03,5.247996310946314580e-01,-8.512247861927072501e-01,5.445184592311680944e+02
2.634686283524277250e+00,6.624862034255633247e+00,6.090928864818182298e+00,1.257251810192833207e-03,5.022454984136549561e-01,-8.647241633267253036e-01,5.462962299795949548e+02
2.501252100420917834e+00,6.893017520803303100e+00,6.338674287475223323e+00,1.205044369557060034e-03,4.790327566359818823e-01,-8.777961984070103973e-01,5.480740007280218151e+02
2.478744712274215445e+00,6.941653307080864366e+00,6.377216614295235786e+00,1.151331839378940498e-03,4.551918347437748369e-01,-8.903926482275061893e-01,5.483945048897664947e+02
2.363125965145798535e+00,7.212355231325458860e+00,6.553481605458485681e+00,1.096191621296450534e-03,4.307584730974525211e-01,-9.024665845440930090e-01,5.501722756381933550e+02
2.258088531475469285e+00,7.483286965055123474e+00,6.689256242044746337e+00,1.039713311629357571e-03,4.057735930274835034e-01,-9.139730358154970480e-01,5.519500463866202153e+02
2.164635982838020833e+00,7.753056228466563837e+00,6.787398405487330422e+00,9.819982266377929366e-04,3.802830606185743645e-01,-9.248696283725899026e-01,5.537278171350470757e+02
2.083801535694032481e+00,8.020111538083261493e+00,6.853610246065173328e+00,9.231586796092125340e-04,3.543373440395815588e-01,-9.351172089086091654e-01,5.555055878834739360e+02
2.016680067547920174e+00,8.282876568875529699e+00,6.893406670956948368e+00,8.633170154534739512e-04,3.279910677735543567e-01,-9.446804296398303435e-01,5.572833586319007964e+02
1.964434356937405202e+00,8.539740348679844217e+00,6.912147684269100090e+00,8.026044180816896585e-04,3.013024712359311241e-01,-9.535282778466871445e-01,5.590611293803276567e+02
1.928301642676027106e+00,8.789047195593751027e+00,6.915069818698023063e+00,7.411595152682642776e-04,2.743327832824682955e-01,-9.616345328133070192e-01,5.608389001287545170e+02
1.909600538811770276e+00,9.029086336386045630e+00,6.907316843143179952e+00,6.791268143377872553e-04,2.471455277397087424e-01,-9.689781354112335654e-01,5.626166708771813774e+02
1.909738343345214417e+00,9.258081141776390410e+00,6.893969926343441301e+00,6.166550092951389016e-04,2.198057780919546733e-01,-9.755434586188305168e-01,5.643944416256082377e+02
1.930218780536003154e+00,9.474177911862568635e+00,6.880077433417931765e+00,5.538952054262928333e-04,1.923793816208466678e-01,-9.813204709610832133e-01,5.661722123740350980e+02
1.971733395017798429e+00,9.675632351530770947e+00,6.869111648159907269e+00,4.909991105692499292e-04,1.649321744677164081e-01,-9.863047889700343740e-01,5.679499831224619584e+02
2.020765055607935956e+00,9.823457226603132142e+00,6.863028569891651109e+00,4.281172429891398710e-04,1.375292092007827094e-01,-9.904976190442023043e-01,5.693671599527850731e+02
2.100576712151709824e+00,9.991596557480548313e+00,6.857649235716183789e+00,3.653972040767841699e-04,1.102340155268016486e-01,-9.939055932560799667e-01,5.711449307012119334e+02
2.197105626117107580e+00,1.014099703699956834e+01,6.853386815999604309e+00,3.029820601000249801e-04,8.310791287754215606e-02,-9.965405074652059492e-01,5.729227014496387937e+02
2.308694138629733050e+00,1.027015068816197818e+01,6.849051422727123750e+00,2.410088713099120181e-04,5.620939088211658607e-02,-9.984189733230159902e-01,5.747004721980656541e+02
2.433760755892740324e+00,1.037744405510110468e+01,6.843452739831867859e+00,1.796073993027055686e-04,2.959357041495361967e-02,-9.995619982428690653e-01,5.764782429464925144e+02
2.570789850818002709e+00,1.046114812725154408e+01,6.835393043048091144e+00,1.188990152026537123e-04,3.311754223858692520e-03,-9.999945090584172469e-01,5.782560136949193748e+02
2.718321668177904549e+00,1.051940766894368551e+01,6.823660176321917348e+00,5.899582252126664601e-05,-2.258892766260019863e-02,-9.997448358789090550e-01,5.800337844433462351e+02
2.874942568791417852e+00,1.055022988944219797e+01,6.807020443592518788e+00,-0.000000000000000000e+00,-4.806577624515451230e-02,-9.988441726084960059e-01,5.818115551917730954e+02
2.912314228067287125e+00,1.055096552992085357e+01,6.801936575578920063e+00,-4.503230614975608365e-02,-3.726796305750540439e-02,-9.982901333441992486e-01,5.822155569623523661e+02
3.083508331876141373e+00,1.052688701625248591e+01,6.773409024253681743e+00,-9.102615956731413549e-02,-2.613282348981434133e-02,-9.955055568960305967e-01,5.839933277107792264e+02
3.260046358007654188e+00,1.047592949828685605e+01,6.738318923854273557e+00,-1.376935479196990386e-01,-1.472323128759544207e-02,-9.903654443293836707e-01,5.857710984592060868e+02
3.440259325000818436e+00,1.040014324826760550e+01,6.696281903351680498e+00,-1.847149492411510052e-01,-3.111638009297042207e-03,-9.827872125927047398e-01,5.875488692076329471e+02
3.622516666247137973e+00,1.030144638406720858e+01,6.646872854073953896e+00,-2.317488291071493345e-01,8.621873570478178969e-03,-9.727374483917022863e-01,5.893266399560598074e+02
3.805215505651339036e+00,1.018163586775984797e+01,6.589623436822143354e+00,-2.784431939427576275e-01,2.039214662959621532e-02,-9.602361939141812464e-01,5.911044107044866678e+02
3.986770186880289835e+00,1.004239788045807202e+01,6.524019335477698966e+00,-3.244483604925317843e-01,3.211194535623805579e-02,-9.453581778030728522e-01,5.928821814529135281e+02
4.165601989168731478e+00,9.885317632558564327e+00,6.449497240996239000e+00,-3.694298979002733629e-01,4.369515096801845216e-02,-9.282307279546803125e-01,5.946599522013403885e+02
4.340128964239413634e+00,9.711888665776379881e+00,6.365441548101486546e+00,-4.130806427947374959e-01,5.505988984147311416e-02,-9.090284874958163286e-01,5.964377229497672488e+02
4.376732919657372989e+00,9.671271446599355670e+00,6.345132526155812691e+00,-4.551307964435200026e-01,6.613133285931718786e-02,-8.879654300382068266e-01,5.968223297231018023e+02
4.539513794477143982e+00,9.470120771154624251e+00,6.241042379846705401e+00,-4.953553657919341768e-01,7.684395141159401643e-02,-8.652849638775607088e-01,5.986001004715286626e+02
4.694184847350403089e+00,9.255791293233627925e+00,6.125893826680282928e+00,-5.335785543036569711e-01,8.714309002340615840e-02,-8.412490762243913789e-01,6.003778712199555230e+02
4.839369872543669793e+00,9.029709336286950716e+00,5.999183742765573868e+00,-5.521497289761505556e-01,1.244884635453261251e-01,-8.243987501419974828e-01,6.021556419683823833e+02
4.974270759956567645e+00,8.793690632630108084e+00,5.861042712042891623e+00,-5.702944609403937104e-01,1.630953909310906280e-01,-8.050864060942405365e-01,6.039334127168092436e+02
5.098355070484234197e+00,8.549722339181602848e+00,5.711885039017161603e+00,-5.877923104272727572e-01,2.027589877618637682e-01,-7.831915427814278852e-01,6.057111834652361040e+02
5.211042749761229942e+00,8.299749538055431586e+00,5.552060425260675558e+00,-6.044100653514224986e-01,2.432251048931372839e-01,-7.586369495691674958e-01,6.074889542136629643e+02
5.311702387646095147e+00,8.045687082037536797e+00,5.381856020105257876e+00,-6.199101459704967620e-01,2.841933713222173918e-01,-7.313997119355118981e-01,6.092667249620898247e+02
5.399647271905027246e+00,7.789431294437417996e+00,5.201498104521214749e+00,-6.340609034251671883e-01,3.253240242389389136e-01,-7.015205271413255117e-01,6.110444957105166850e+02
5.474131211782684581e+00,7.532871593901448115e+00,5.011153418057634923e+00,-6.466481186542761828e-01,3.662485988933634751e-01,-6.691099868104893877e-01,6.128222664589435453e+02
5.534344106373755068e+00,7.277902114539957168e+00,4.810930136625561460e+00,-6.574866807194780227e-01,4.065840148405293064e-01,-6.343506156319541622e-01,6.146000372073704057e+02
5.579407231786063015e+00,7.026433391905978709e+00,4.600878506857609018e+00,-6.664312167244043073e-01,4.459490259964040693e-01,-5.974938489960284205e-01,6.163778079557972660e+02
5.608368220012886596e+00,6.780404185971597997e+00,4.380991140763812020e+00,-6.733844362511414161e-01,4.839815283016558056e-01,-5.588517525046565737e-01,6.181555787042241263e+02
5.620195701205437544e+00,6.541793513283717942e+00,4.151202972411610403e+00,-6.783021767587106288e-01,5.203549687282421621e-01,-5.187840239678023213e-01,6.199333494526509867e+02
5.617878952053735553e+00,6.452249351940436917e+00,4.057706162863403243e+00,-6.811945653416983104e-01,5.547921555113624059e-01,-4.776815134919824013e-01,6.206269611670700215e+02
5.593348104927326148e+00,6.233473488650960626e+00,3.808259385560533783e+00,-6.821232580474494434e-01,5.870751347167106893e-01,-4.359479866085961275e-01,6.224047319154968818e+02
5.548825368221535825e+00,6.027490487272227249e+00,3.548814530119585253e+00,-6.811952568703220079e-01,6.170503897671386628e-01,-3.939820281505213573e-01,6.241825026639237421e+02
5.483819830235105997e+00,5.835834873969073300e+00,3.279580138077190288e+00,-6.785542183973414243e-01,6.446292971218282597e-01,-3.521608183591563024e-01,6.259602734123506025e+02
5.399556500787999980e+00,5.658699577248401447e+00,3.001718550175712874e+00,-6.743703814454125034e-01,6.697843815165031023e-01,-3.108270755673070429e-01,6.277380441607774628e+02
5.379174928223871888e+00,5.625829015964538549e+00,2.944509374229716592e+00,-6.688302393160591164e-01,6.925423437369867541e-01,-2.702798792135746031e-01,6.280949602047243161e+02
5.261613526807296992e+00,5.475379423153232672e+00,2.653542265686016144e+00,-6.621269057880017073e-01,7.129750327387287534e-01,-2.307695025838888137e-01,6.298727309531511764e+02
5.129223517607216287e+00,5.338528957386330376e+00,2.357770629075498725e+00,-7.539590941786509237e-01,6.385470167185606227e-01,-1.542834785229273142e-01,6.316505017015780368e+02
4.983912114538389559e+00,5.214149901957400246e+00,2.058946622250079628e+00,-8.577745906953654353e-01,5.123489314336157063e-01,-4.148884206904882022e-02,6.334282724500048971e+02
4.827558627756424414e+00,5.100878566039796169e+00,1.758884454774174655e+00,-9.446330460162596365e-01,3.072502765310105577e-01,1.151767161611273460e-01,6.352060431984317574e+02
4.661965707937575587e+00,4.997401168178123854e+00,1.459391075459265386e+00,-9.553001136463098453e-01,2.640439617712277837e-02,2.944562798275306426e-01,6.369838139468586178e+02
4.488870418163879883e+00,4.902446707395463399e+00,1.162276768547964689e+00,-8.598053002216189400e-01,-2.573757762327541498e-01,4.410131013013094958e-01,6.387615846952854781e+02
4.309954858015071721e+00,4.814779995237989496e+00,8.691158352933802123e-01,-7.103386858293452288e-01,-4.690064131525269464e-01,5.248351511056018603e-01,6.405393554437123385e+02
4.188580993821624077e+00,4.760695469727645346e+00,6.781646224296551395e-01,-5.675800512689285204e-01,-6.020197715549167050e-01,5.616271717594568669e-01,6.417176686789021005e+02
4.002709481938636848e+00,4.684234385071334827e+00,3.960517135183488358e-01,-4.525250859952980598e-01,-6.821661243948012876e-01,5.743434732571831569e-01,6.434954394273289608e+02
3.815260254123226780e+00,4.612207907297091403e+00,1.209811597147485707e-01,-3.895189735675339548e-01,-5.871866585410817629e-01,7.095680356824521917e-01,6.452732101757558212e+02
3.626937101181475054e+00,4.544038619710812021e+00,-1.457356311453461839e-01,-3.043852019074231308e-01,-4.588505097748507566e-01,8.347489793579486728e-01,6.470509809241826815e+02
3.438147772242717171e+00,4.479357135426630165e+00,-4.026190525031266843e-01,-2.029236437844114394e-01,-3.059007759842189977e-01,9.301863845732800673e-01,6.488287516726095419e+02
3.302636814195202497e+00,4.435128143039253956e+00,-5.788782801349235951e-01,-9.738012096225805159e-02,-1.467976031935904202e-01,9.843615066315795081e-01,6.501047821386989654e+02
3.114293959735584760e+00,4.376315549871289790e+00,-8.116016417579722253e-01,-4.636159474099297807e-07,-1.156627263298117030e-06,9.999999999992237321e-01,6.518825528871258257e+02
2.927200711689733392e+00,4.320719242999312648e+00,-1.030322264343823013e+00,-2.936402452738133860e-05,8.824351507456737465e-03,9.999610642211159695e-01,6.536603236355526860e+02
2.742965338894373772e+00,4.269753511507946797e+00,-1.234749266793210287e+00,-5.828245660826872788e-05,1.765537472693185644e-02,9.998441300254790054e-01,6.554380943839795464e+02
2.563625487970702554e+00,4.225421411027700636e+00,-1.424998013663966834e+00,-8.721215645949590355e-05,2.648985000748126095e-02,9.996490785473776119e-01,6.572158651324064067e+02
2.391264703082450094e+00,4.189747773119784746e+00,-1.601100726625786175e+00,-1.161463493348594835e-04,3.532570851069180562e-02,9.993758456297825443e-01,6.589936358808332670e+02
2.228025004829614186e+00,4.164790671496676033e+00,-1.763006673407852665e+00,-1.450782493804729869e-04,4.416087799828838367e-02,9.990244220271703446e-01,6.607714066292601274e+02
