5.605341187069938336e+00,5.970242549115725161e+00,3.470626585555165011e+00,-6.785542183973414243e-01,6.446292971218282597e-01,-3.521608183591563024e-01,1.136050608562911179e+02
5.530667543162440580e+00,5.793526746955202533e+00,3.202553647936562164e+00,-6.743703814454125034e-01,6.697843815165031023e-01,-3.108270755673070429e-01,1.153634245217908898e+02
5.437416606847284228e+00,5.631087692602617878e+00,2.928078091723662180e+00,-6.688302393160591164e-01,6.925423437369867541e-01,-2.702798792135746031e-01,1.171217881872906617e+02
5.326981556745771229e+00,5.482303762251198975e+00,2.648629362791866892e+00,-6.621269057880017073e-01,7.129750327387287534e-01,-2.307695025838888137e-01,1.188801518527904335e+02
5.200614401218090599e+00,5.346323097623188580e+00,2.365693759543065600e+00,-6.457707414573230498e-01,7.425977729726312981e-01,-1.775632198788575367e-01,1.206385155182902054e+02
5.165726792890010799e+00,5.315564411300722547e+00,2.295255340480652606e+00,-6.265120691538370590e-01,7.696846596012377750e-01,-1.227524011133982740e-01,1.210730598939453415e+02
5.010430665873715661e+00,5.201687853856008736e+00,2.009358439632167759e+00,-6.044860763977205620e-01,7.937954085320600983e-01,-6.697337407290224198e-02,1.228314235594451134e+02
4.841561036816189656e+00,5.097441938866617228e+00,1.724045347859877619e+00,-5.799346784819819911e-01,8.145898608143697928e-01,-1.091454774261732714e-02,1.245897872249448852e+02
4.659887210428360405e+00,5.001309866199604492e+00,1.441024965554187798e+00,-5.531937002204843079e-01,8.318511770558392193e-01,4.472526430535232050e-02,1.263481508904446571e+02
4.466620762933303901e+00,4.911814194769816844e+00,1.162276774196076223e+00,-5.246705407297228563e-01,8.454965344040235031e-01,9.927957494452824272e-02,1.281065145559444431e+02
4.263951749265466162e+00,4.827501707424429078e+00,8.896264682650010247e-01,-7.633712410425651518e-01,5.127683515911211076e-01,3.928523462519453724e-01,1.298648782214442292e+02
4.054532624387960027e+00,4.746928332478674406e+00,6.238058979653681169e-01,-7.267010032743443926e-01,-2.637147719702866988e-01,6.343186666689866193e-01,1.316232418869440153e+02
3.840964746893492876e+00,4.668649836978028489e+00,3.648930220863410012e-01,-4.525250859952980598e-01,-6.821661243948012876e-01,5.743434732571831569e-01,1.333816055524438013e+02
3.680087986675677492e+00,4.610893501862072696e+00,1.767715665816274317e-01,-4.056484181651624499e-01,-6.573708723069286997e-01,6.350692065299097244e-01,1.346957683681230549e+02
3.465369461996973488e+00,4.533897040278715096e+00,-6.705345190836636826e-02,-3.511828062691072505e-01,-6.252496447122176670e-01,6.969458503845189501e-01,1.364541320336228409e+02
3.253416320363135661e+00,4.456708637489567693e+00,-3.021260957717396001e-01,-2.890234778622276512e-01,-5.848925071608701565e-01,7.578695034842698464e-01,1.382124956991226270e+02
3.046593022286081975e+00,4.378660264837676230e+00,-5.275448881422162284e-01,-2.197401838576311106e-01,-5.358753015274532183e-01,8.152005353353710682e-01,1.399708593646224131e+02
2.847288152843438169e+00,4.299059258318857601e+00,-7.423528617189789625e-01,-1.447298574006843364e-01,-4.785295608315392468e-01,8.660616189320201608e-01,1.417292230301221991e+02
2.657928053293161952e+00,4.217184064975009861e+00,-9.455320581021207094e-01,-6.618957254218668651e-02,-4.140995509378984085e-01,9.078218450773882786e-01,1.434875866956219852e+02
2.480990635335102557e+00,4.132279709144295765e+00,-1.135997676552771951e+00,1.314920524434791752e-02,-3.446739599479154426e-01,9.386303637403090594e-01,1.452459503611217713e+02
2.319019455703390964e+00,4.043552950569557325e+00,-1.312591838544205469e+00,9.047101282779893006e-02,-2.728669870446305823e-01,9.577883916706745326e-01,1.470043140266215573e+02
2.174638130046389950e+00,3.950167103941348401e+00,-1.474076932258487460e+00,1.633500613371154375e-01,-2.013537972668497100e-01,9.658019495669808441e-01,1.487626776921213434e+02
2.050565166754371837e+00,3.851236486837950945e+00,-1.619128498774174085e+00,2.300740437988133547e-01,-1.324389842127735584e-01,9.641192093464119317e-01,1.505210413576211295e+02
1.949629303543101155e+00,3.745820460204365876e+00,-1.746327619057086888e+00,2.897377276141597235e-01,-6.779725061232295957e-02,9.547018288483545279e-01,1.522794050231209155e+02
1.895067266988403221e+00,3.663698230856388349e+00,-1.824853717696867772e+00,3.421422461676195126e-01,-8.418307444136425427e-03,9.396104594389912412e-01,1.535589950777485626e+02
1.847330653427786462e+00,3.543275565196036592e+00,-1.912011360027251916e+00,2.313947571292783723e-01,2.713438532284358912e-02,9.724814607519434162e-01,1.553173587432483487e+02
1.825535524056137948e+00,3.416478890993235318e+00,-1.976785643871751041e+00,1.155358818008271754e-01,6.281284303928327817e-02,9.913152913003145938e-01,1.570757224087481347e+02
1.827361380365266186e+00,3.285075635061984745e+00,-2.017349565267736455e+00,-3.182420956568052239e-04,9.704156348154953371e-02,9.952802789561465691e-01,1.588340860742479208e+02
1.850380201817964476e+00,3.151201440314121527e+00,-2.033229428400501249e+00,4.295363537662198251e-04,9.013857063514769952e-02,9.959291408440528182e-01,1.605924497397477069e+02
1.868770975171781368e+00,3.092529598204273089e+00,-2.030183270679230656e+00,1.177731426922942531e-03,8.322715137078334768e-02,9.965299063366792609e-01,1.613633110039113490e+02
1.927512084118462310e+00,2.961183060276379564e+00,-2.003094557220562066e+00,1.926234106277668499e-03,7.630830536159273481e-02,9.970824099115426220e-01,1.631216746694111350e+02
2.000479879952133277e+00,2.835166957099455765e+00,-1.958951262828096951e+00,2.674935079624668217e-03,6.938303700334846891e-02,9.975865069749649816e-01,1.648800383349109211e+02
2.084966242559045391e+00,2.717853836152460012e+00,-1.901270150821960714e+00,3.423724819578088073e-03,6.245235468850515032e-02,9.980420740140272251e-01,1.666384020004107072e+02
2.178358071279173913e+00,2.612688492501103354e+00,-1.833490168968957557e+00,4.172493663479706280e-03,5.551727007395132474e-02,9.984490087231115973e-01,1.683967656659104932e+02
2.278122806406059464e+00,2.523207126121066235e+00,-1.758992216594348346e+00,4.921131893588856152e-03,4.857879734370500191e-02,9.988072301047510315e-01,1.701551293314102793e+02
2.381794578819582231e+00,2.453057143842982235e+00,-1.681118578030624588e+00,5.669529817417896800e-03,4.163795246780481463e-02,9.991166785445723120e-01,1.719134929969100654e+02
2.486960913206749613e+00,2.406017715329665130e+00,-1.603192134107154443e+00,6.417577848076097026e-03,3.469575245865937768e-02,9.993773158601766404e-01,1.736718566624098514e+02
2.591249914460739490e+00,2.386021197447130149e+00,-1.528535462108432608e+00,7.165166584484642699e-03,2.775321462612470244e-02,9.995891253238665675e-01,1.754302203279096375e+02
2.692317870619928222e+00,2.397175546969134707e+00,-1.460489933987092925e+00,7.912186891325828988e-03,2.081135583258219082e-02,9.997521116591883139e-01,1.771885839934094236e+02
2.767109980633363442e+00,2.433468339200666186e+00,-1.414940140964475290e+00,8.658529978590193132e-03,1.387119174928919813e-02,9.998663010113223448e-01,1.785641041349178408e+02
2.855336428265568216e+00,2.517474054164590580e+00,-1.368703350914387773e+00,9.404087480586520442e-03,6.933736115269226695e-03,9.999317408914176752e-01,1.803224678004176269e+02
2.934524913362708265e+00,2.638631527416071876e+00,-1.335036164144135284e+00,1.014875153428117759e-02,-0.000000000000000000e+00,9.999485000950276703e-01,1.820808314659174130e+02
3.003008868374740903e+00,2.795360939010699042e+00,-1.313845084675038244e+00,8.880149666995204236e-03,-1.445792221864768429e-07,9.999605706936003369e-01,1.838391951314171990e+02
3.022323593969036715e+00,2.860799250597259480e+00,-1.310814438447325703e+00,7.611521255249172058e-03,-2.891596079620746133e-07,9.999710319524747204e-01,1.844421685535195650e+02
3.066450031230024909e+00,3.083497491278818003e+00,-1.313914929051850367e+00,6.342872424261569719e-03,-4.337404592157748560e-07,9.999798837822796438e-01,1.862005322190193510e+02
3.099405191122203362e+00,3.334551830904467273e+00,-1.328170281823005006e+00,5.074209299664987800e-03,-5.783210778163316514e-07,9.999871261169559489e-01,1.879588958845191371e+02
3.122004983418869895e+00,3.609964835762962121e+00,-1.352685964693211007e+00,3.805538007358240556e-03,-7.229007656291263269e-07,9.999927589137592721e-01,1.897172595500189232e+02
3.134972719179562883e+00,3.905873302246529732e+00,-1.386626422076560505e+00,2.536864673358464693e-03,-8.674788245330229100e-07,9.999967821532610435e-01,1.914756232155187092e+02
3.138944326186850819e+00,4.218526702822325447e+00,-1.429210272086618216e+00,1.268195423653220100e-03,-1.012054556437222442e-06,9.999991958393482649e-01,1.932339868810184953e+02
3.134472881941174016e+00,4.544266242069946671e+00,-1.479705815144094716e+00,-4.636159474099297807e-07,-1.156627263298117030e-06,9.999999999992237321e-01,1.949923505465182814e+02
3.122393138214676789e+00,4.879828710340456510e+00,-1.536945690262349506e+00,1.408788070433306171e-04,1.287608054850789344e-02,9.999170899143939861e-01,1.967507142120180674e+02
3.118722270511378181e+00,4.945661412911106503e+00,-1.548915728479637099e+00,2.823625306618802468e-04,2.576618432828770011e-02,9.996679568819648587e-01,1.970880762954675163e+02
3.093619929669817026e+00,5.294893909064240844e+00,-1.614910940908034442e+00,4.239171192410939957e-04,3.866273753608819030e-02,9.992522269279621172e-01,1.988464399609673023e+02
3.064523916504048540e+00,5.648500947488255264e+00,-1.682494472944155994e+00,5.654718547015994334e-04,5.155929727649572608e-02,9.986697748034309985e-01,2.006048036264670884e+02
3.033138325001282443e+00,6.004315157487963184e+00,-1.749153786947211575e+00,7.069559126211400054e-04,6.444941097581333156e-02,9.979207251271056123e-01,2.023631672919668745e+02
3.001136009158243745e+00,6.360167937859151799e+00,-1.812371032841903151e+00,8.482985391871806233e-04,7.732663250363153162e-02,9.970054524902242088e-01,2.041215309574666605e+02
2.970168223846475719e+00,6.713877158453703586e+00,-1.869608575485108615e+00,9.894292280028392679e-04,9.018453828099333436e-02,9.959245805204562929e-01,2.058798946229664466e+02
2.941874038097365585e+00,7.063234704929060470e+00,-1.918294408308629739e+00,1.130277895716210682e-03,1.030167432813200862e-01,9.946789799103975538e-01,2.076382582884662327e+02
2.917889573813517767e+00,7.405993796454811040e+00,-1.955807369394949369e+00,1.270775055453924251e-03,1.158169168312461056e-01,9.932697654245107310e-01,2.093966219539660187e+02
2.899675574020784907e+00,7.739856104386692692e+00,-1.980031153372030506e+00,-3.852614653431610248e-02,7.744900792419315283e-02,9.962516686082762973e-01,2.111549856194658048e+02
2.894785730985560246e+00,7.872715814151384883e+00,-1.984132762992665944e+00,-7.832698042022595564e-02,3.872450378270503313e-02,9.961753344391903742e-01,2.118786046998114614e+02
2.889905336948181969e+00,8.182595880893273943e+00,-1.979435044140336553e+00,-1.177652196089313680e-01,0.000000000000000000e+00,9.930414659270077049e-01,2.136369683653112475e+02
2.893261222883493744e+00,8.477242325427754466e+00,-1.959494472444041735e+00,-5.908627400109450062e-02,-5.863745373251302850e-02,9.965292074216565155e-01,2.153953320308110335e+02
2.905855205545182951e+00,8.754047580117498839e+00,-1.923571697609522735e+00,0.000000000000000000e+00,-1.168706797253571267e-01,9.931471412739065752e-01,2.171536956963108196e+02
2.924475047426338126e+00,8.965768535194539979e+00,-1.880466903326712957e+00,0.000000000000000000e+00,-1.042060632349462446e-01,9.945557281445189801e-01,2.186061051544508018e+02
2.957377213060825127e+00,9.198889986572028832e+00,-1.812799479400734048e+00,0.000000000000000000e+00,-9.151420079983850486e-02,9.958037713585778938e-01,2.203644688199505879e+02
3.000991635706599325e+00,9.405874775248326713e+00,-1.730997448143585027e+00,0.000000000000000000e+00,-7.880124443338537565e-02,9.968903469668817241e-01,2.221228324854503740e+02
3.055631946141067701e+00,9.583573385821352986e+00,-1.636382697322223967e+00,0.000000000000000000e+00,-6.607338606680213111e-02,9.978147662034609899e-01,2.238811961509501600e+02
3.121648935290715521e+00,9.728664520654566772e+00,-1.530203467021513886e+00,0.000000000000000000e+00,-5.333684248895729368e-02,9.985765775509197750e-01,2.256395598164499461e+02
3.199431088101142073e+00,9.837635620688272908e+00,-1.413641524544137384e+00,0.000000000000000000e+00,-4.059784017280448909e-02,9.991755678424605325e-01,2.273979234819497321e+02
3.289405170406917378e+00,9.906762277695358776e+00,-1.287818957224419192e+00,0.000000000000000000e+00,-2.786260007479053613e-02,9.996117623943168162e-01,2.291562871474495182e+02
3.391465113939566844e+00,9.934055819754920691e+00,-1.153663698366895307e+00,-4.657514810983266751e-02,2.371460884312710012e-03,9.989119739755957239e-01,2.309146508129493043e+02
3.492981401187467139e+00,9.922473042034944513e+00,-1.026175274775509960e+00,-9.868475212878509428e-02,3.630055853149321415e-02,9.944564289839861182e-01,2.324946410122304314e+02
3.615243157935299045e+00,9.872684280322170380e+00,-8.769971177532479567e-01,-1.566502481268364499e-01,7.417168326281030344e-02,9.848650979518777104e-01,2.342530046777302175e+02
3.745209521425747035e+00,9.789143367870359214e+00,-7.209007907535991411e-01,-2.205049981120597302e-01,1.160533295849281998e-01,9.684571082396229436e-01,2.360113683432300036e+02
3.881348906127947362e+00,9.674927793225695183e+00,-5.582174383557699793e-01,-2.898097333301555834e-01,1.617137448273709976e-01,9.433233714909283751e-01,2.377697320087297896e+02
4.022190320094850335e+00,9.532950421215533154e+00,-3.892403428340876492e-01,-3.634513521783346857e-01,2.104849103637524699e-01,9.075236730294715670e-01,2.395280956742295757e+02
4.166313540507276869e+00,9.365975845324742366e+00,-2.142266099505218402e-01,-4.394951609553611194e-01,2.611567723819016584e-01,8.594423446257980492e-01,2.412864593397293618e+02
4.312339715626487546e+00,9.176635963701695431e+00,-3.339864680472653946e-02,-5.152004887166430347e-01,3.119738430508384175e-01,7.982736233135998560e-01,2.430448230052291478e+02
4.458922332591013671e+00,8.967444865422226741e+00,1.530545597641665145e-01,-5.873018675091957741e-01,3.608043440001965085e-01,7.244975788577894260e-01,2.448031866707289339e+02
4.604738493316779646e+00,8.740813110147332310e+00,3.449763568757946985e-01,-6.525576295236947821e-01,4.054895589306493631e-01,6.401146442229266320e-01,2.465615503362287200e+02
4.748480443220656433e+00,8.499061481276697805e+00,5.422415251626406807e-01,-7.084006686800413677e-01,4.442716095532959764e-01,5.484443723465436404e-01,2.483199140017285060e+02
4.888847299606094765e+00,8.244434290109527552e+00,7.447555590045537022e-01,-7.534202703546561963e-01,4.761233983315939500e-01,4.535023768183479853e-01,2.500782776672282921e+02
5.024536928339048636e+00,7.979112306364009477e+00,9.524541233065796364e-01,-7.874779221344690994e-01,5.008457586000950590e-01,3.592103119943446665e-01,2.518366413327280782e+02
5.154237918917132788e+00,7.705225388668542230e+00,1.165302683696951558e+00,-8.114672441232628763e-01,5.189293724285560794e-01,2.687623823117770150e-01,2.535950049982278642e+02
5.276621609210026875e+00,7.424864887313215256e+00,1.383296308019593912e+00,-8.268937325544192252e-01,5.312903919070549597e-01,1.843292557611749261e-01,2.553533686637276503e+02
5.390334112030777725e+00,7.140095890635512532e+00,1.606459637980658828e+00,-8.354679789043338856e-01,5.390059790530717931e-01,1.070785261877801320e-01,2.571117323292274364e+02
5.493988296296026697e+00,6.852969385903517008e+00,1.834847030786167732e+00,-8.388203816066820417e-01,5.431235369011419012e-01,3.737901905099173111e-02,2.588700959947271940e+02
5.586155675854970859e+00,6.565534405455326628e+00,2.068542871584142961e+00,-8.383526543831321121e-01,5.445572683445347728e-01,-2.494410515322023625e-02,2.606284596602269517e+02
5.665358159116133052e+00,6.279850229159229080e+00,2.307662058507288450e+00,-8.351919860094663139e-01,5.440521584196161831e-01,-8.038404956532353707e-02,2.623868233257267093e+02
5.730637699742817226e+00,5.997600515472145233e+00,2.551989362191211530e+00,-8.891306516217948319e-01,4.328275414065895221e-01,-1.486842417559085250e-01,2.641451869912264669e+02
5.782124640935235149e+00,5.719698957814117080e+00,2.800616887716035563e+00,-9.271816858227094338e-01,3.043325009710416973e-01,-2.184395804969175570e-01,2.659035506567262246e+02
5.812381075488626259e+00,5.504649770049536706e+00,2.998908238665312975e+00,-9.442102552513129687e-01,1.656037510832330806e-01,-2.846794539572763405e-01,2.672888647340567445e+02
5.838190044073543916e+00,5.237269508022142972e+00,3.252440949141546689e+00,-9.390363948534554694e-01,2.625424668062740011e-02,-3.428138907218582498e-01,2.690472283995565022e+02
5.851750581349345559e+00,4.976082580345775774e+00,3.506604360906961038e+00,-9.148120321047221726e-01,-1.045983586961785478e-01,-3.901001528767892856e-01,2.708055920650562598e+02
5.853493429419267535e+00,4.721711757907899099e+00,3.760185818228983123e+00,-8.901778476671334817e-01,-1.002434620676823096e-01,-4.444487010166582319e-01,2.725639557305560174e+02
5.843786107569664878e+00,4.474815851862790517e+00,4.011969320233588654e+00,-8.601545630616327376e-01,-9.516380611956053170e-02,-5.010768181118445685e-01,2.743223193960557751e+02
5.822935359494688434e+00,4.236094028504439279e+00,4.260728531315117529e+00,-8.241532107925282347e-01,-8.930275163580377040e-02,-5.592821324614620782e-01,2.760806830615555327e+02
5.791189284602965337e+00,4.006290338144568253e+00,4.505219732141604538e+00,-7.817332415008300117e-01,-8.262800325669517054e-02,-6.181146756148220289e-01,2.778390467270552904e+02
5.748739167654830950e+00,3.786198486687172959e+00,4.744174670738189548e+00,-7.326956848662522503e-01,-7.514276685877650797e-02,-6.763952971208337939e-01,2.795974103925550480e+02
5.695721019471324809e+00,3.576666879879445204e+00,4.976293272557433589e+00,-6.771719731622792837e-01,-6.689533289113204495e-02,-7.327776833398312872e-01,2.813557740580548057e+02
5.632216840034147687e+00,3.378603971694308150e+00,5.200236167633534023e+00,-6.156851759116612754e-01,-5.798414478465729188e-02,-7.858559684294690317e-01,2.831141377235545633e+02
5.558255613953524410e+00,3.192983949968411395e+00,5.414616991864979134e+00,-5.491598452993389223e-01,-4.855568338752606905e-02,-8.343055854550994743e-01,2.848725013890543210e+02
5.473814047010103323e+00,3.020852794287716581e+00,5.617994418173668514e+00,-4.788662455929512118e-01,-3.879403872307007201e-02,-8.770302967351037982e-01,2.866308650545540786e+02
5.378817051272280381e+00,2.863334743193372223e+00,5.808863871736734019e+00,-4.063031800092500312e-01,-2.890350779771823711e-02,-9.132810701812220655e-01,2.883892287200538362e+02
5.273137985148569129e+00,2.721639210086881366e+00,5.985648881670194932e+00,-3.330434884956661734e-01,-1.908789184178045703e-02,-9.427182437800138981e-01,2.901475923855535939e+02
5.156598653650616093e+00,2.597068189756139400e+00,6.146692019453086964e+00,-2.605777425515024004e-01,-9.531178987949777068e-03,-9.654058197016748277e-01,2.919059560510533515e+02
5.028969073109610832e+00,2.491024200235303354e+00,6.290245372005889735e+00,-1.901891985026649412e-01,-3.835017985698263815e-04,-9.817473818143261921e-01,2.936643197165531092e+02
4.889967003603825191e+00,2.405018807769812472e+00,6.414460494662942658e+00,-1.228792203905776231e-01,8.245802545307169204e-03,-9.923873759457985111e-01,2.954226833820528668e+02
4.739257251416878702e+00,2.340681786001122422e+00,6.517377786288546915e+00,-5.934518831790875498e-02,1.628841582146576747e-02,-9.981046218375801971e-01,2.971810470475526245e+02
4.576450742950415318e+00,2.299770964130971151e+00,6.596915225464859311e+00,0.000000000000000000e+00,2.371239420780988857e-02,-9.997188216498343882e-01,2.989394107130523821e+02
4.401832318715665160e+00,2.283477285726857708e+00,6.652064984707902973e+00,2.029129961862974427e-03,1.897092502790258955e-02,-9.998179767513601934e-01,3.006977743785521398e+02
4.291375964521007447e+00,2.288343467573339396e+00,6.671054781487608665e+00,4.058367929696648016e-03,1.422857243811643038e-02,-9.998905326965149554e-01,3.017480552169266730e+02
4.098164399326975627e+00,2.320403692066627332e+00,6.681339475069107081e+00,6.087551893453316612e-03,9.485714957043252932e-03,-9.999364794444186577e-01,3.035064188824264306e+02
3.898822233889316369e+00,2.376071038352937759e+00,6.672081197483337611e+00,8.116519843085624741e-03,4.742731254424300234e-03,-9.999558133267114624e-01,3.052647825479261883e+02
3.695609005489470800e+00,2.454924726611178887e+00,6.645387428565191712e+00,1.014510983321466504e-02,0.000000000000000000e+00,-9.999485370490184266e-01,3.070231462134259459e+02
3.490592554631207101e+00,2.556346879709586517e+00,6.603332613019916586e+00,2.598512298603105480e-02,-1.399636602663838214e-03,-9.996613498584314694e-01,3.087815098789257036e+02
3.301249601280584756e+00,2.669735255445370381e+00,6.552261233478605007e+00,4.185491056908104135e-02,-2.802131629850666220e-03,-9.991197698572394925e-01,3.104045629476839849e+02
3.097537518044608973e+00,2.812690737486847503e+00,6.485699324788892106e+00,5.774242543918664539e-02,-4.206421807791894257e-03,-9.983226524125229373e-01,3.121629266131837426e+02
2.896796882652871385e+00,2.974579084602548829e+00,6.409915263884047754e+00,7.363551489340207368e-02,-5.611434016787436238e-03,-9.972694333802970545e-01,3.139212902786835002e+02
2.700575963798840018e+00,3.154269051156726622e+00,6.326902872613990425e+00,8.952196667724680867e-02,-7.016089349841670049e-03,-9.959601357345950756e-01,3.156796539441832579e+02
2.510440243313163400e+00,3.350719250142842665e+00,6.238614424197770347e+00,1.053895556687543950e-01,-8.419307234329839393e-03,-9.943953724860331578e-01,3.174380176096830155e+02
2.327982212570518517e+00,3.562971959773639341e+00,6.146971864914004158e+00,1.212260908242336621e-01,-9.820009580158405027e-03,-9.925763458370948644e-01,3.191963812751827732e+02
2.154831276000696239e+00,3.790147331574493350e+00,6.053877861471772981e+00,1.370194619661342927e-01,-1.121712491735452066e-02,-9.905048425682226876e-01,3.209547449406825308e+02
1.992663822316692368e+00,4.031437965414907509e+00,5.961226737562542510e+00,1.527576859946344623e-01,-1.260959248608589656e-02,-9.881832256959736105e-01,3.227131086061822884e+02
1.843213524765571210e+00,4.286103818527218223e+00,5.870915362456461395e+00,1.684289521125149625e-01,-1.399636624277260204e-02,-9.856144224910056151e-01,3.244714722716820461e+02
1.754953414248427102e+00,4.460495628490187769e+00,5.814662343847412096e+00,1.840216656673749063e-01,-1.537641874719230389e-02,-9.828019089885388082e-01,3.256189955696929701e+02
1.635270098078518197e+00,4.739283382873182404e+00,5.733999361563290265e+00,2.296338416886149481e-01,-9.289500209490927918e-02,-9.688337408126922456e-01,3.273773592351927277e+02
1.532303233641995055e+00,5.028233544397456178e+00,5.659989765190023725e+00,2.740746837001820091e-01,-1.709501895764444501e-01,-9.463926777180933225e-01,3.291357229006924854e+02
1.446915845810728962e+00,5.325633438441244039e+00,5.593700498035021340e+00,3.161663753748513717e-01,-2.475401268719480963e-01,-9.158398924869720625e-01,3.308940865661922430e+02
1.380058895661556928e+00,5.629811652886456130e+00,5.536242879853553234e+00,3.549082712986311727e-01,-3.207734676568037013e-01,-8.781483367923934580e-01,3.326524502316920007e+02
1.379934223598819454e+00,5.630485098299111257e+00,5.536127644361765299e+00,3.357194269366178263e-01,-3.371121529747158063e-01,-8.795725454413073630e-01,3.326563052539749492e+02
1.332948731917185548e+00,5.939591340262640351e+00,5.488660719763164941e+00,3.161199854781788776e-01,-3.533974758181379072e-01,-8.804421496422377702e-01,3.344146689194747069e+02
1.304062853875350037e+00,6.251183213794527127e+00,5.450821077024109229e+00,2.961395699452972208e-01,-3.695935351032371141e-01,-8.807394472387999329e-01,3.361730325849744645e+02
1.291888112018411583e+00,6.562644612081093953e+00,5.422297807833493799e+00,2.758108870094789222e-01,-3.856639902465985870e-01,-8.804496812618628487e-01,3.379313962504742221e+02
1.295111323829536421e+00,6.871369849308983646e+00,5.402833554411947681e+00,2.551695068091771601e-01,-4.015724274233653524e-01,-8.795613158433397416e-01,3.396897599159739798e+02
1.312487007354245616e+00,7.174748030305147850e+00,5.392223030217270896e+00,2.342535856297672803e-01,-4.172827413231408045e-01,-8.780662682357420756e-01,3.414481235814737374e+02
1.342830050378057694e+00,7.470147451777392256e+00,5.390311839955547413e+00,2.131035355616816840e-01,-4.327595237327482858e-01,-8.759600891306155157e-01,3.432064872469734951e+02
1.385008600522231292e+00,7.754899943120753925e+00,5.396995592115410467e+00,1.917616472197839483e-01,-4.479684496570715546e-01,-8.732420848581422534e-01,3.449648509124732527e+02
1.437937134140956585e+00,8.026285054757387627e+00,5.412219298924512145e+00,1.702716734022605150e-01,-4.628766514515385566e-01,-8.699153767912168878e-01,3.467232145779730104e+02
1.500569662167768215e+00,8.281514001442088713e+00,5.435977060280514195e+00,1.486783830823799057e-01,-4.774530716125656160e-01,-8.659868952886846660e-01,3.484815782434727680e+02
1.571417375702021557e+00,8.517776028033880564e+00,5.468374867333893441e+00,1.270270962680037086e-01,-4.916687854587010742e-01,-8.614673076903645033e-01,3.502399419089725257e+02
1.648064297472978446e+00,8.732289960535839057e+00,5.509694049223291756e+00,1.053632109611054579e-01,-5.054972859103346039e-01,-8.563708821026383422e-01,3.519983055744722833e+02
1.727629137717282548e+00,8.922233119994958273e+00,5.560330052664297362e+00,8.373173366126258899e-02,-5.189147238878788482e-01,-8.507152908643678124e-01,3.537566692399720409e+02
1.807223670543313121e+00,9.084664877002008865e+00,5.620731877481209615e+00,6.217682457442768457e-02,-5.319000994227588430e-01,-8.445213595403612272e-01,3.555150329054717986e+02
1.883934938771216983e+00,9.216509809763142158e+00,5.691404657457259653e+00,4.074136793579131999e-02,-5.444354003213729420e-01,-8.378127689499765829e-01,3.572733965709715562e+02
1.942254657122399752e+00,9.297228121127313116e+00,5.758372143380531050e+00,1.946657668828492838e-02,-5.565056870396702937e-01,-8.306157190208620644e-01,3.587188461020795671e+02
2.004648541606618650e+00,9.358631946047708539e+00,5.851165082104963666e+00,-1.608360743716070150e-03,-5.680991242149860954e-01,-8.229585641099336213e-01,3.604772097675793248e+02
2.056757102816161087e+00,9.381091694811281911e+00,5.954568946963711973e+00,-1.471155453210798783e-03,-5.196359882684975506e-01,-8.543864906456880570e-01,3.622355734330790824e+02
2.099037902583130943e+00,9.364796430410784467e+00,6.065250977864194759e+00,-1.324761740900784555e-03,-4.679273525791267097e-01,-8.837659405717214200e-01,3.639939370985788401e+02
2.133103750060401094e+00,9.311034408388399797e+00,6.178558556874555130e+00,-1.170199321848714802e-03,-4.133333970606927754e-01,-9.105790100303294832e-01,3.657523007640785977e+02
2.160529523897550153e+00,9.220864446820447924e+00,6.289854157638141707e+00,-1.008833279222573660e-03,-3.563362912483836742e-01,-9.343572281492565912e-01,3.675106644295783553e+02
2.182859435652297897e+00,9.095122321050041592e+00,6.394488688817463462e+00,-8.423257444480352230e-04,-2.975231269441755977e-01,-9.547142396658280239e-01,3.692690280950781130e+02
2.201614162641521322e+00,8.934425811577884957e+00,6.487774771062810863e+00,-6.725555238563556745e-04,-2.375575290441163112e-01,-9.713732382887235728e-01,3.710273917605778706e+02
2.204317875456505593e+00,8.902782092447875328e+00,6.500473363130462978e+00,-5.015140015273495322e-04,-1.771428867325902656e-01,-9.841850162259894175e-01,3.713128144979579019e+02
2.219167653848923560e+00,8.675072016676514508e+00,6.560987618508451469e+00,-3.311904414938241165e-04,-1.169818403589628353e-01,-9.931339986825149513e-01,3.730711781634576596e+02
2.231408509250088823e+00,8.418212259944661824e+00,6.601614983422081195e+00,-1.634617210430516809e-04,-5.773733344963152825e-02,-9.983317953498185293e-01,3.748295418289574172e+02
2.240365181927129967e+00,8.137362571577172687e+00,6.621846857160632815e+00,-0.000000000000000000e+00,-0.000000000000000000e+00,-1.000000000000000000e+00,3.765879054944571749e+02
2.246166061629655264e+00,7.837496518266161338e+00,6.621562749234430889e+00,0.000000000000000000e+00,-0.000000000000000000e+00,-1.000000000000000000e+00,3.783462691599569325e+02
2.250567571167803926e+00,7.523254482939977450e+00,6.598990134244369976e+00,0.000000000000000000e+00,-2.272526552986125006e-02,-9.997417478062008422e-01,3.801046328254566902e+02
2.256158687763565318e+00,7.199066975703153126e+00,6.551461317767624415e+00,0.000000000000000000e+00,-4.552186457458670676e-02,-9.989633425935373623e-01,3.818629964909564478e+02
2.265549719055763855e+00,6.869235192956053559e+00,6.477304280424777794e+00,0.000000000000000000e+00,-6.835441080105916778e-02,-9.976611020401868757e-01,3.836213601564562055e+02
2.281364410492898287e+00,6.537905356330741213e+00,6.376972190691053477e+00,0.000000000000000000e+00,-9.118706962208709965e-02,-9.958337804743001564e-01,3.853797238219559631e+02
2.292710638172834603e+00,6.387852795735714295e+00,6.319908404701450877e+00,0.000000000000000000e+00,-1.139838365154902944e-01,-9.934826042831399473e-01,3.861812522288923333e+02
2.328666210812355253e+00,6.064005451990503559e+00,6.170906447770754255e+00,0.000000000000000000e+00,-1.367088197613925693e-01,-9.906112752232567598e-01,3.879396158943920909e+02
2.377788717320936662e+00,5.749097375078944694e+00,5.999104168471498966e+00,0.000000000000000000e+00,-1.593265224431023031e-01,-9.872259413357145075e-01,3.896979795598918486e+02
2.443030970832567483e+00,5.447231733325169856e+00,5.805532536014499811e+00,0.000000000000000000e+00,-1.818021185569631826e-01,-9.833351359979972672e-01,3.914563432253916062e+02
2.527473454880168280e+00,5.162562021365548759e+00,5.591097389023992115e+00,-0.000000000000000000e+00,-2.041017182454783752e-01,-9.789496864544384724e-01,3.932147068908913639e+02
2.634082910389106580e+00,4.899312069507950618e+00,5.356633019979549104e+00,5.063872678115828276e-07,-2.135966608864145189e-01,-9.769219346794898451e-01,3.949730705563911215e+02
2.765470430995749851e+00,4.661799175435027642e+00,5.102955348410714187e+00,1.117822979145919577e-06,-2.250356545580532164e-01,-9.743505294176111331e-01,3.967314342218908791e+02
2.921505260206561871e+00,4.452243271430341487e+00,4.831144927005259326e+00,1.870424734532349682e-06,-2.390770997007461707e-01,-9.710005872270009997e-01,3.984897978873906368e+02
2.947365930560063241e+00,4.425595917811210533e+00,4.789055784709273844e+00,2.818773385144272083e-06,-2.567099916662712311e-01,-9.664884790677835680e-01,3.987462303523109313e+02
3.141457398846221771e+00,4.267403500537136907e+00,4.484822463785969937e+00,4.049202922062908641e-06,-2.794866338806510919e-01,-9.601495828597056414e-01,4.005045940178106889e+02
3.345950477418726976e+00,4.130660365679164059e+00,4.166334272231243752e+00,5.706151617092827011e-06,-3.099773625740429583e-01,-9.507439374821593514e-01,4.022629576833104466e+02
3.553107300735323548e+00,4.011635744046598617e+00,3.835279253507552166e+00,8.048715721376821532e-06,-3.527260475040738807e-01,-9.357266349460038324e-01,4.040213213488102042e+02
3.755175271619082267e+00,3.906765221616020689e+00,3.493273216773350676e+00,1.158354375635226750e-05,-4.164201309061249523e-01,-9.091723018448963911e-01,4.057796850143099618e+02
3.945979450846238468e+00,3.812614169429680011e+00,3.142945919463037807e+00,1.740384877768288256e-05,-5.190627078448716292e-01,-8.547361610589876424e-01,4.075380486798097195e+02
4.122523694510480397e+00,3.725824196670664001e+00,2.789033078050439762e+00,2.798189502863165522e-05,-6.974442146176369484e-01,-7.166390770209234429e-01,4.092964123453094771e+02
4.283337655921759080e+00,3.643083837362812716e+00,2.437326694132932570e+00,4.572864856942007993e-05,-9.564580536400368871e-01,-2.918698160755975879e-01,4.110547760108092348e+02
4.426832627639242901e+00,3.561161767536638045e+00,2.093628936307283528e+00,4.988580543129713161e-05,-8.767533387213110041e-01,4.809403087207816396e-01,4.128131396763089924e+02
4.551296716463236081e+00,3.478189791751725046e+00,1.763376201809972788e+00,3.637647046708618591e-05,-5.364956519104704391e-01,8.439030833916367769e-01,4.145715033418087501e+02
4.654903058822764450e+00,3.394865474160467134e+00,1.451266107162733965e+00,2.707265775938157964e-05,-3.336832199274649691e-01,9.426852645532920461e-01,4.163298670073085077e+02
4.736914990582273610e+00,3.313153142067511325e+00,1.162276955289432978e+00,2.171914712823117815e-05,-2.220907629171000874e-01,9.750259958355874668e-01,4.180882306728082654e+02
4.798883540684057536e+00,3.235023063142720812e+00,9.011775647634687747e-01,1.839706628132510436e-05,-1.543176606747205248e-01,9.880212848240820245e-01,4.198465943383080230e+02
4.843458131746920969e+00,3.162447156255458136e+00,6.704627696081194577e-01,1.616743088627028399e-05,-1.094037838536350560e-01,9.939973902466350264e-01,4.216049580038077806e+02
4.873203672736653225e+00,3.097407832310621334e+00,4.712933192759094503e-01,1.457713152738622952e-05,-7.763518144617105599e-02,9.969818345332714937e-01,4.233633216693075383e+02
4.890615571396378591e+00,3.041910072943336818e+00,3.050112861880038828e-01,1.338917438829664821e-05,-5.404421203674355384e-02,9.985385435555593769e-01,4.251216853348072959e+02
4.898134443116594738e+00,2.997993516453871798e+00,1.731477799881156188e-01,1.246949889850506862e-05,-3.586156687707408447e-02,9.993567670585078444e-01,4.268800490003070536e+02
4.898160602271725672e+00,2.967744623124499270e+00,7.743174838235529489e-02,1.173714184600908803e-05,-2.143196813241231291e-02,9.997703089231100293e-01,4.286384126658068112e+02
4.893068421019193259e+00,2.953308991580581910e+00,1.979991515336338229e-02,1.114052037839533941e-05,-9.708939555219692902e-03,9.999528670735445823e-01,4.303967763313065689e+02
4.885220640381256807e+00,2.956903898028196309e+00,2.407912472868731051e-03,1.064529442313578632e-05,0.000000000000000000e+00,9.999999999433388798e-01,4.321551399968063265e+02
4.876243538914964759e+00,2.979807073465745582e+00,2.601474542966038250e-02,1.101236087402494508e-05,2.768666606401350605e-04,9.999999616117892787e-01,4.339135036623060842e+02
4.866563238947223091e+00,3.020210636573075202e+00,8.666166243927449220e-02,1.143380541764764750e-05,5.947497626448626203e-04,9.999998230709783442e-01,4.356233651713107520e+02
4.855037209788460650e+00,3.078839472699650859e+00,1.841687390868735619e-01,1.192267808449037778e-05,9.634929118065780869e-04,9.999995357695216081e-01,4.373817288368105096e+02
4.841323713069954238e+00,3.153075221887549517e+00,3.133743250579407724e-01,1.249656771053880178e-05,1.396363398087852254e-03,9.999990250060727393e-01,4.391400925023102673e+02
4.824773417838786216e+00,3.241530775006041587e+00,4.709962961287570971e-01,1.317976306028631730e-05,1.911682399584652744e-03,9.999981726466787846e-01,4.408984561678100249e+02
4.804709418417822064e+00,3.342906583090322847e+00,6.539158657590047330e-01,1.400677869161909233e-05,2.535484681864358554e-03,9.999967855554529050e-01,4.426568198333097826e+02
4.780424002451919563e+00,3.455983397811806412e+00,8.591596582676002125e-01,1.502836927379070843e-05,3.306055491085555485e-03,9.999945348706852366e-01,4.444151834988095402e+02
4.751175182307264322e+00,3.579615503114371933e+00,1.083882617830024486e+00,1.632235441940680084e-05,4.282096373179814300e-03,9.999908316500865091e-01,4.461735471643092978e+02
4.716182973614879259e+00,3.712724400973983041e+00,1.325351655053088606e+00,1.801443317823492091e-05,5.558427083142189647e-03,9.999845516625952557e-01,4.479319108298090555e+02
4.674985853221630627e+00,3.854291923469642889e+00,1.581105355789163669e+00,2.032169774843800461e-05,7.298811968154899667e-03,9.999733631106790810e-01,4.496902744953088131e+02
4.627798992949023749e+00,4.003349741897968883e+00,1.849115251561678663e+00,2.365413866204385353e-05,9.812537069374585585e-03,9.999518556194312291e-01,4.514486381608085708e+02
4.575155422331504518e+00,4.158969166045200616e+00,2.127598741264142834e+00,2.889003716113816968e-05,1.376217982007806734e-02,9.999052963015876427e-01,4.532070018263083284e+02
4.517548968445265878e+00,4.320255128396835786e+00,2.414833426093024205e+00,3.831150144038082179e-05,2.086947395752575957e-02,9.997822080778218101e-01,4.549653654918080861e+02
4.455437377782195618e+00,4.486341329033569636e+00,2.709147209172698911e+00,6.027197687350708665e-05,3.743743046551474551e-02,9.992989718634901486e-01,4.567237291573078437e+02
4.389245189325625240e+00,4.656385521797624882e+00,3.008908684320751981e+00,1.690221116915396253e-04,1.195160640289120862e-01,9.928322526341308851e-01,4.584820928228076014e+02
4.319366376549592879e+00,4.829564916505607819e+00,3.312517758706138071e+00,1.584582881741035507e-04,1.274838486660857528e-01,-9.918406339832289698e-01,4.602404564883073590e+02
4.246166774520033549e+00,5.005071672512841019e+00,3.618396455494813591e+00,4.963575184881596108e-05,4.545974266148086751e-02,-9.989661702647613106e-01,4.619988201538071166e+02
4.169986306828950440e+00,5.182108459332884109e+00,3.924979843617042885e+00,2.766941977901210369e-05,2.889619687435991333e-02,-9.995824173326588458e-01,4.637571838193068743e+02
4.091141025731025671e+00,5.359884060288419683e+00,4.230707042522632300e+00,1.824634023596761196e-05,2.179011921437424767e-02,-9.997625669986320851e-01,4.655155474848066319e+02
4.009924977572418392e+00,5.537608995313572535e+00,4.534012250218483864e+00,1.300977680561076409e-05,1.784097723234050886e-02,-9.998408370146425472e-01,4.672739111503063896e+02
3.926611904393004338e+00,5.714491139042041645e+00,4.833315743015945465e+00,9.676999257388675476e-06,1.532750565512067120e-02,-9.998825268384020637e-01,4.690322748158061472e+02
3.841456791431813400e+00,5.889731310202553694e+00,5.127014795254451585e+00,7.369541058015260132e-06,1.358726659479111802e-02,-9.999076888054075907e-01,4.707906384813059049e+02
3.754697269171348939e+00,6.062518808101679646e+00,5.413474466809635288e+00,5.677340809416828259e-06,1.231102738037176923e-02,-9.999242164147278400e-01,4.725490021468056625e+02
3.666554877513462429e+00,6.232026871601925144e+00,5.691018205432976984e+00,4.383274468120685416e-06,1.133504764780886645e-02,-9.999357562741761907e-01,4.743073658123054201e+02
3.577236198674585310e+00,6.397408035497671008e+00,5.957918209904861762e+00,3.361626952274414608e-06,1.056451971608336239e-02,-9.999441938987734257e-01,4.760657294778051778e+02
3.486933864415726170e+00,6.557789358548837377e+00,6.212385498608121281e+00,2.534569864504020391e-06,9.940748655188891975e-03,-9.999505895341780359e-01,4.778240931433049354e+02
3.395827442277975283e+00,6.712267496648122389e+00,6.452559626435975915e+00,1.851343394681388067e-06,9.425453090627203961e-03,-9.999555794287108279e-01,4.795824568088046931e+02
3.304084204569677663e+00,6.859903593669266719e+00,6.676497990927212633e+00,1.277429813910694972e-06,8.992600644959996767e-03,-9.999595657485399469e-01,4.813408204743044507e+02
3.211859782940184704e+00,6.999717961464537730e+00,6.882164666160339728e+00,7.885383156072671634e-07,8.623871678017052192e-03,-9.999628137269201966e-01,4.830991841398042084e+02
3.187454936620365942e+00,7.034178952983104693e+00,6.930994803544771266e+00,3.670787005432151178e-07,8.305999926511379444e-03,-9.999655045875762704e-01,4.835616855080074288e+02
3.094239582563909963e+00,7.155643500720132444e+00,7.095090247403564199e+00,0.000000000000000000e+00,8.029142491245429281e-03,-9.999677659159095233e-01,4.853200491735071864e+02
3.000658303444323494e+00,7.266849387979466002e+00,7.235325934333889819e+00,0.000000000000000000e+00,6.423347105742366510e-03,-9.999793700931830509e-01,4.870784128390069441e+02
2.906028976897971461e+00,7.367055986272741386e+00,7.348385021355244184e+00,0.000000000000000000e+00,4.817522740935414882e-03,-9.999883956699899823e-01,4.888367765045067017e+02
2.809391330437785772e+00,7.455615833588229435e+00,7.430527878175982259e+00,0.000000000000000000e+00,3.211681819563415915e-03,-9.999948425366451676e-01,4.905951401700064594e+02
2.709767835205543207e+00,7.531822254634676916e+00,7.477837167539268748e+00,0.000000000000000000e+00,1.605836764845388438e-03,-9.999987106433111395e-01,4.923535038355062170e+02
2.606157531067276878e+00,7.594905450158876192e+00,7.486195328322294174e+00,-0.000000000000000000e+00,-0.000000000000000000e+00,-1.000000000000000000e+00,4.941118675010059746e+02
2.549082525142347233e+00,7.620955247687977163e+00,7.468725160573920441e+00,2.432479935988867206e-02,-4.874031109227639630e-02,-9.985152408504985866e-01,4.950379114330693824e+02
2.435807893081697983e+00,7.657417140194512584e+00,7.395206482948981197e+00,4.992361844708195079e-02,-1.000334127308509652e-01,-9.937308230394030772e-01,4.967962750985691400e+02
2.317796549911112169e+00,7.682396340410932112e+00,7.285066447432007486e+00,7.662533939308911746e-02,-1.535364310436605206e-01,-9.851675602176865887e-01,4.985546387640688977e+02
2.195125661709437015e+00,7.697463446966512635e+00,7.142353196574740437e+00,1.041904232822767062e-01,-2.087693949076571409e-01,-9.723989384229863031e-01,5.003130024295686553e+02
2.067858128104514304e+00,7.704131261228570615e+00,6.970927641596064817e+00,1.323124816159531592e-01,-2.651183847373026481e-01,-9.550945760933372553e-01,5.020713660950684130e+02
1.936042505878571074e+00,7.703863637115641261e+00,6.774485654947230984e+00,1.606277205850770440e-01,-3.218544562496952199e-01,-9.330640087217251244e-01,5.038297297605681706e+02
1.801006641284176979e+00,7.698545039546311308e+00,6.555592590446726042e+00,1.887328222357375351e-01,-3.781694694782159472e-01,-9.062934260853369173e-01,5.055880934260679282e+02
1.666633303829718304e+00,7.690926269317010622e+00,6.315394618791678738e+00,2.162100529025439144e-01,-4.332263992740187919e-01,-8.749674851078453885e-01,5.073464570915676859e+02
1.536898264854702045e+00,7.683669793313059770e+00,6.055460588899852503e+00,2.426564851503913989e-01,-4.862178881644248496e-01,-8.394700682236291289e-01,5.091048207570674435e+02
1.480761730039241497e+00,7.681155175182380113e+00,5.929318917529665889e+00,2.677128663772747608e-01,-5.364240912157358654e-01,-8.003618028988110922e-01,5.099042934024712395e+02
1.364042789149398693e+00,7.678217256186719020e+00,5.636420608300637625e+00,2.910874575400069775e-01,-5.832604423843712471e-01,-7.583372260495209183e-01,5.116626570679709971e+02
1.254627864117858538e+00,7.679051329961770200e+00,5.330248370114549772e+00,3.125712670515023994e-01,-6.263081791218915173e-01,-7.141689350418702897e-01,5.134210207334707547e+02
1.153152579225995567e+00,7.684878149750804077e+00,5.013170813164232520e+00,3.320431338009843247e-01,-6.653245273710820529e-01,-6.686483609297699804e-01,5.151793843989705692e+02
1.060308804820430995e+00,7.696941789692637315e+00,4.687493863659586424e+00,3.494653248243519417e-01,-7.002338804894581159e-01,-6.225323279638459439e-01,5.169377480644703837e+02
9.768488903637648768e-01,7.716516343098327901e+00,4.355474018322683882e+00,3.648719854183780642e-01,-7.311046564056705721e-01,-5.765018782612917336e-01,5.186961117299701982e+02
9.035903041731495611e-01,7.744912757330288500e+00,4.019331314762334628e+00,3.783535305516018687e-01,-7.581180222335275332e-01,-5.311362069035234779e-01,5.204544753954700127e+02
8.413254603268284226e-01,7.782636949433915596e+00,3.681094474749320611e+00,3.888254419247877958e-01,-7.791008969741709533e-01,-4.917484804715065994e-01,5.222128390609698272e+02
7.907220732538311481e-01,7.828544315248288754e+00,3.342444947805864430e+00,4.000851512307506685e-01,-8.016623054471304632e-01,-4.441502220981761173e-01,5.239712027264696417e+02
7.610525966907889517e-01,7.868920348856650371e+00,3.081413317269305008e+00,4.119157431519291368e-01,-8.253676080937314419e-01,-3.861265751709230809e-01,5.253309669982119203e+02
7.355507778038935518e-01,7.925703771893423344e+00,2.746478658295714137e+00,4.238256000744882734e-01,-8.492317363392148932e-01,-3.149243063273811649e-01,5.270893306637117348e+02
7.236574405625849638e-01,7.985269889878926719e+00,2.415689936997689191e+00,4.348545571143088706e-01,-8.713307797554014078e-01,-2.273415633089615751e-01,5.288476943292115493e+02
7.261810615988657513e-01,8.045728917324034057e+00,2.090603798848834405e+00,4.433111851183972330e-01,-8.882755723357095290e-01,-1.201736274753726214e-01,5.306060579947113638e+02
7.439980807377436500e-01,8.105189252763990382e+00,1.772809667791053201e+00,4.465306752055134276e-01,-8.947265586761478096e-01,8.645305086914018347e-03,5.323644216602111783e+02
7.780579214432733481e-01,8.161745978423475378e+00,1.463938882265071184e+00,4.409418828325079587e-01,-8.835281321296327706e-01,1.579502950286734986e-01,5.341227853257109928e+02
8.293883389743053058e-01,8.213469240181945352e+00,1.165674072166196229e+00,4.229355874155926176e-01,-8.474483919741152560e-01,3.208686831679180562e-01,5.358811489912108073e+02
8.991011259877518258e-01,8.258392437938475439e+00,8.797588306247462464e-01,3.907144271945505176e-01,-7.828859119432475255e-01,4.841816655583150442e-01,5.376395126567106217e+02
9.883982068176530023e-01,8.294500155130149821e+00,6.080077362040113842e-01,3.460382099925853328e-01,-6.933668703826985080e-01,6.320600764807327021e-01,5.393978763222104362e+02
1.098578153315518335e+00,8.319715754388260720e+00,3.523167831227664859e-01,2.939612584914508275e-01,-5.890187613048400994e-01,7.527573827848080823e-01,5.411562399877102507e+02
1.231043156966677987e+00,8.331888564111874729e+00,1.146742794559009598e-01,2.404395978468597539e-01,-4.817758463110878853e-01,8.426629419278358624e-01,5.429146036532100652e+02
1.385994302231895903e+00,8.329292446205686318e+00,-1.029503636894655710e-01,1.899905110465953395e-01,-3.806895372901448193e-01,9.049746305339552155e-01,5.446729673187098797e+02
1.561123385991074253e+00,8.311141506560220549e+00,-2.991489459518255067e-01,1.449515215470783269e-01,-2.904435982791077064e-01,9.458496564570244569e-01,5.464313309842096942e+02
1.752917490356601160e+00,8.277094744816608340e+00,-4.733747380516808434e-01,1.059564018560526510e-01,-2.123079377665170742e-01,9.714414961628143885e-01,5.481896946497095087e+02
1.900591072027679518e+00,8.240987010964564874e+00,-5.827413509886190113e-01,7.269101472793941532e-02,-1.456531097763278104e-01,9.866616380453370194e-01,5.494549151871229924e+02
2.116258843392642142e+00,8.174289799186905014e+00,-7.120979031645633395e-01,4.445390641600440590e-02,-8.907359094422205581e-02,9.950325349457970203e-01,5.512132788526228069e+02
2.339216428675165549e+00,8.090455340357447511e+00,-8.182969783797685581e-01,2.046449726112935935e-02,-4.100531100368540183e-02,9.989493324595297707e-01,5.529716425181226214e+02
2.566211952927480944e+00,7.988869361203780883e+00,-9.007054966160802367e-01,-0.000000000000000000e+00,0.000000000000000000e+00,1.000000000000000000e+00,5.547300061836224359e+02
2.794391897502733535e+00,7.868939885233908527e+00,-9.578302853774601777e-01,-4.511521783964313886e-02,1.250171298539510915e-02,9.989035610566778800e-01,5.564883698491222503e+02
3.021665307757110952e+00,7.730187455357600435e+00,-9.865861528325814422e-01,-9.553619039210625719e-02,2.647368425096407671e-02,9.950738567400631007e-01,5.582467335146220648e+02
3.218067157453883720e+00,7.592133837520188777e+00,-9.835686116683564073e-01,-1.517589760149716249e-01,4.205337471360955093e-02,9.875225196794673588e-01,5.597836423021948349e+02
3.438937478889754651e+00,7.415238080235064366e+00,-9.459706410621864237e-01,-2.141472758848208535e-01,5.934156827596579614e-02,9.749971910244967788e-01,5.615420059676946494e+02
3.655528219249548183e+00,7.220889221060168950e+00,-8.758739778746282845e-01,-2.828002896774605146e-01,7.836575379732604874e-02,9.559721778326611963e-01,5.633003696331944639e+02
3.867847187132611442e+00,7.011229831999354012e+00,-7.765646881572472182e-01,-3.573725917295675902e-01,9.903021163568384577e-02,9.286968546645798517e-01,5.650587332986942783e+02
4.075894792172826797e+00,6.788314091819079188e+00,-6.511609234500151944e-01,-4.368643238205477397e-01,1.210578747369824570e-01,8.913442396386375144e-01,5.668170969641940928e+02
4.279663365940951536e+00,6.554119706329221806e+00,-5.026308439529914018e-01,-5.194381711291664594e-01,1.439396115119534747e-01,8.422976757725113561e-01,5.685754606296939073e+02
