8.933315952977864960e-01,8.629793846090599629e+00,5.775661147928712325e+00,5.146006772348362679e-01,-2.480960388855404375e-01,-8.207523977904372936e-01,4.294673299534821354e+01
9.702199149546282264e-01,8.483551005406221535e+00,5.969213902543593520e+00,4.956581692751143020e-01,-2.377145134338744248e-01,-8.353530926103874821e-01,4.464319150969583916e+01
1.066318454541117289e+00,8.321396916118589004e+00,6.156716063975020248e+00,4.791095088962391002e-01,-2.286633769037966224e-01,-8.474474252413284336e-01,4.643263871783534569e+01
1.177231889775469886e+00,8.150945235778642939e+00,6.326443813813683370e+00,3.929099344480910250e-01,-2.895810763240280195e-01,-8.727912600656666520e-01,4.822208592597485222e+01
1.301216779087217112e+00,7.972383497026394927e+00,6.478084415348089209e+00,2.985009455834568004e-01,-3.492254665660304291e-01,-8.882222463930524725e-01,5.001153313411435875e+01
1.435770645822115110e+00,7.786190486197984484e+00,6.611672777775931209e+00,1.990009300189371499e-01,-4.051176846750121907e-01,-8.923442673179200479e-01,5.180098034225386527e+01
1.578458444482806033e+00,7.592820181886108521e+00,6.727136384370685285e+00,9.822815024673275941e-02,-4.551128954816501260e-01,-8.849991428614006894e-01,5.359042755039337180e+01
1.726897733185743800e+00,7.392703962639357584e+00,6.824294860948196373e+00,8.697107866803648843e-07,-4.977934321499777326e-01,-8.672956237106175248e-01,5.537987475853287833e+01
1.878744180656636065e+00,7.186252802891192282e+00,6.902858902493886895e+00,6.696773336410937858e-07,-3.812401455619638391e-01,-9.244760415562125466e-01,5.716932196667238486e+01
2.031677320640474793e+00,6.973859467790640032e+00,6.962428551556042677e+00,4.505281018816003007e-07,-2.537079905838364180e-01,-9.672808565839133843e-01,5.895876917481189139e+01
2.041642815048067217e+00,6.959676173088266360e+00,6.965125182019372474e+00,2.232257872605998355e-07,-1.215845518672536568e-01,-9.925810781730575183e-01,5.907559435235256728e+01
2.192736133552408262e+00,6.737800079829161071e+00,6.987827138501542912e+00,0.000000000000000000e+00,8.029142491245429281e-03,-9.999677659159095233e-01,6.086504156049207381e+01
2.341136039324389628e+00,6.511572177567138908e+00,6.990862418122829602e+00,-2.549836475563217394e-02,7.327000966411479667e-03,-9.996480122781352673e-01,6.265448876863158034e+01
2.487729951643828930e+00,6.283619506836052082e+00,6.975267846488533152e+00,-5.113269826870531221e-02,6.615843208562618288e-03,-9.986699543825283687e-01,6.444393597677108687e+01
2.634488654039187860e+00,6.057316304390579553e+00,6.942598157130045244e+00,-7.685308727656912919e-02,5.896969561214842996e-03,-9.970249890178550789e-01,6.623338318491059340e+01
2.783412332217239271e+00,5.836029959176499027e+00,6.894306472327973445e+00,-1.026083966851419338e-01,5.171744975290630195e-03,-9.947083843939464876e-01,6.802283039305009993e+01
2.936542615512391929e+00,5.623140832856371674e+00,6.831752950396571045e+00,-1.283467643662406510e-01,4.441586445013116606e-03,-9.917194060754120910e-01,6.981227760118960646e+01
3.095975033998708437e+00,5.422062054858013624e+00,6.756212879755958411e+00,-1.540161164795259274e-01,3.707949360595857308e-03,-9.880613781421194730e-01,7.160172480932911299e+01
3.263871966365065713e+00,5.236259406400269434e+00,6.668884267958592460e+00,-1.795646915444882308e-01,2.972313079430377505e-03,-9.837416769180263865e-01,7.339117201746861952e+01
3.442476157565004247e+00,5.069271407834722076e+00,6.570894970830525317e+00,-2.049415610349574757e-01,2.236166047349876125e-03,-9.787716567831148406e-01,7.518061922560812604e+01
3.455626695278410931e+00,5.059150682078667138e+00,6.563513976971849573e+00,-2.300971343252387336e-01,1.500990817816712361e-03,-9.731665098028589034e-01,7.530365996599566358e+01
3.659148958062461432e+00,4.932413365415166062e+00,6.446779364556721070e+00,-2.549836363831662900e-01,7.682493185871170109e-04,-9.669450630567394400e-01,7.709310717413517011e+01
3.872122838874779926e+00,4.827171905169634236e+00,6.319287227205310664e+00,-2.795555476478078782e-01,3.936870254411854270e-05,-9.601295195073629163e-01,7.888255438227467664e+01
4.091246617116675033e+00,4.742691620417060605e+00,6.179845078902674871e+00,-3.558585935137436596e-01,4.067495721540114947e-03,-9.345309609108600757e-01,8.067200159041418317e+01
4.313103174617566538e+00,4.678186158669985772e+00,6.027581597653851375e+00,-4.337894483151115144e-01,8.285044285627261515e-03,-9.009761775827684893e-01,8.246144879855368970e+01
4.407357039850671399e+00,4.658954875729913070e+00,5.957263797412010398e+00,-5.115310235160972496e-01,1.260869195897365569e-02,-8.591722952165401495e-01,8.322319428707237421e+01
4.625437216259848050e+00,4.632350026664647125e+00,5.779383287741653774e+00,-5.870490704658478665e-01,1.693702035996057231e-02,-8.093741571155520509e-01,8.501264149521188074e+01
4.836750292218074954e+00,4.623299666166244215e+00,5.588900621371275967e+00,-6.583192874529961713e-01,2.116064433117385846e-02,-7.524413218975077866e-01,8.680208870335138727e+01
5.037366057473750658e+00,4.630967848670689335e+00,5.385817539900444650e+00,-7.235807810652624683e-01,2.517520960566685048e-02,-6.897804448477032890e-01,8.859153591149089380e+01
5.223283556623324664e+00,4.654651902098024152e+00,5.170060801901380287e+00,-7.815472339719556905e-01,2.889390705563933681e-02,-6.231765907075178523e-01,9.038098311963040032e+01
5.390408161018776845e+00,4.693778920913268315e+00,4.941481747075386011e+00,-8.315192470754579901e-01,3.225615331480612830e-02,-5.545586374013077302e-01,9.217043032776990685e+01
5.534528052525436337e+00,4.747903229705288553e+00,4.699855411604303868e+00,-8.733791759452803616e-01,3.523061444867273823e-02,-4.857649831252886519e-01,9.395987753590941338e+01
5.653087777025623595e+00,4.816168223366646295e+00,4.445452762316681294e+00,-8.742037959978737893e-01,1.369066193894683814e-01,-4.658586702319224004e-01,9.574932474404891991e+01
5.746965629104572315e+00,4.896745755378728582e+00,4.179615882052850395e+00,-8.647793307836459942e-01,2.434421426323407078e-01,-4.391954374079544698e-01,9.753877195218842644e+01
5.788850489598877935e+00,4.950080624888579806e+00,4.017885180540861967e+00,-8.438389562993846571e-01,3.510693775801006500e-01,-4.058153619037675464e-01,9.858925494308415693e+01
5.839497192215504562e+00,5.049365808366274244e+00,3.734340496432660750e+00,-8.113086220772931512e-01,4.554339484308121411e-01,-3.665490940648527540e-01,1.003787021512236635e+02
5.871492802116795140e+00,5.155020408175804647e+00,3.444400314104278937e+00,-7.684789663864159959e-01,5.523951994399718401e-01,-3.229545197970444259e-01,1.021681493593631700e+02
5.886927197480580354e+00,5.264842358226156094e+00,3.149768795052638293e+00,-7.177610990715990180e-01,6.388096981370092742e-01,-2.770219742649185357e-01,1.039575965675026765e+02
5.887772239974657040e+00,5.376637398928747480e+00,2.852122183363061669e+00,-6.621269057880017073e-01,7.129750327387287534e-01,-2.307695025838888137e-01,1.057470437756421830e+02
5.875893634804779886e+00,5.488206910011184547e+00,2.553118780757674955e+00,-7.563665935913105320e-01,6.349838855772743651e-01,-1.571783736913707485e-01,1.075364909837816896e+02
5.853062050138805539e+00,5.597335620682050816e+00,2.254408814871927902e+00,-8.351919860094663139e-01,5.440521584196161831e-01,-8.038404956532353707e-02,1.093259381919211961e+02
5.820963561388201590e+00,5.701779129672969404e+00,1.957644259483626969e+00,-8.372166151965303449e-01,5.453710215045992626e-01,-4.048194834607923148e-02,1.111153854000607026e+02
5.781209481197474354e+00,5.799251166017153736e+00,1.664488665133280865e+00,-8.378998020256317458e-01,5.458160560298374042e-01,2.958841908701970690e-03,1.129048326082002092e+02
5.735345631711402881e+00,5.887410519380877894e+00,1.376627058635661927e+00,-8.368491319940419837e-01,5.451316393830680784e-01,5.015003513804522361e-02,1.146942798163397157e+02
5.684861111730304728e+00,5.963847566331409666e+00,1.095775970392772081e+00,-8.335982998532904809e-01,5.430140158037446430e-01,1.012405705357005276e-01,1.164837270244792222e+02
5.631196607697816603e+00,6.026070316084205736e+00,8.236936491797123283e-01,-8.276080965610664864e-01,5.391119392930753262e-01,1.562790946295376238e-01,1.182731742326187288e+02
5.575752294067974013e+00,6.071489896003850362e+00,5.621905251896588407e-01,-8.182772668276142580e-01,5.330337463250299779e-01,2.151681664927068138e-01,1.200626214407582353e+02
5.519895365443968416e+00,6.097405393416341468e+00,3.131399835997303871e-01,-8.049678830249121786e-01,5.243638846568252632e-01,2.776134430570590950e-01,1.218520686488977418e+02
5.464967239949728217e+00,6.100987966100625215e+00,7.848951276950792699e-02,-7.870494359136124274e-01,5.126916344559956373e-01,3.430750258863277669e-01,1.236415158570372483e+02
5.412290470565797484e+00,6.079264129137731842e+00,-1.397277065833957554e-01,-7.639633378972646716e-01,4.976531263456717147e-01,4.107327405835196621e-01,1.254309630651767549e+02
5.363175398606109034e+00,6.029098120576987796e+00,-3.393807022654652950e-01,-7.353042436067659393e-01,4.789843144218461912e-01,4.794806522391866221e-01,1.272204102733162614e+02
5.318926581116426355e+00,5.947173242597954435e+00,-5.182280295493417732e-01,-7.009068834214217114e-01,4.565775404510032387e-01,5.479657747781171429e-01,1.290098574814557821e+02
5.280227866140364767e+00,5.831791405771448389e+00,-6.748986745127325548e-01,-6.609193482113729923e-01,4.305292722619681878e-01,6.146789087689880082e-01,1.307993046895952887e+02
5.246544078330450667e+00,5.684689211521984475e+00,-8.098781371636202264e-01,-6.158402683681639678e-01,4.011643225269378443e-01,6.780914025319378924e-01,1.325887518977347952e+02
5.221578912193900024e+00,5.537034065219457624e+00,-9.062440274835088516e-01,-5.665023028278211026e-01,3.690250933510104692e-01,7.368145094717217791e-01,1.340938752183199085e+02
5.194933091249409607e+00,5.336065287130562496e+00,-1.001490104234817213e+00,-5.139983889286496854e-01,3.348235347144096208e-01,7.897460710760777491e-01,1.358833224264594151e+02
5.170297571598631237e+00,5.112653348160694833e+00,-1.078452501654939999e+00,-4.595651623119384466e-01,2.993652030653434770e-01,8.361700405915338807e-01,1.376727696345989216e+02
5.146695843895473743e+00,4.869739544941954712e+00,-1.138136617321716448e+00,-4.044511901720028724e-01,2.634634271813604545e-01,8.757889342223401652e-01,1.394622168427384281e+02
5.123181945724565090e+00,4.610156748352286726e+00,-1.181445028682455600e+00,-3.497997608450214013e-01,2.278629561709449025e-01,9.086905966927377731e-01,1.412516640508779346e+02
5.098833936690343016e+00,4.336646099004757282e+00,-1.209182864137682945e+00,-2.965671258308162916e-01,1.931867015337102866e-01,9.352683241866870389e-01,1.430411112590174412e+02
5.072747656239547709e+00,4.051873208365547541e+00,-1.222062594222945497e+00,-2.454831899839584886e-01,1.599101303697034737e-01,9.561206794335348480e-01,1.448305584671569477e+02
5.044030722956145851e+00,3.758443960089546287e+00,-1.220708271400195555e+00,-1.970495552571867592e-01,1.283599910548983980e-01,9.719543124392890920e-01,1.466200056752964542e+02
5.011796736306444622e+00,3.458920004112145286e+00,-1.205659243688201876e+00,-1.515633340106431748e-01,9.872982546174606522e-02,9.835044368724887853e-01,1.484094528834359608e+02
4.975159643800093789e+00,3.155834034520491826e+00,-1.177373364231065311e+00,-1.091542395992433773e-01,7.110413012744980221e-02,9.914784690835851677e-01,1.501989000915754673e+02
4.933228238288172918e+00,2.851704941238666358e+00,-1.136229715904458537e+00,-6.982498673585148252e-02,4.548467344229343429e-02,9.965217587735784033e-01,1.519883472997149738e+02
4.885100751657184937e+00,2.549052925097272659e+00,-1.082530867173302047e+00,-3.348866616458416601e-02,2.181484187424840085e-02,9.992009917491668780e-01,1.537777945078544803e+02
4.829859512510061847e+00,2.250414665917662482e+00,-1.016504672625720529e+00,-0.000000000000000000e+00,0.000000000000000000e+00,1.000000000000000000e+00,1.555672417159939869e+02
4.766900474103291430e+00,1.958344010361257714e+00,-9.380753916917763391e-01,1.241130845568627874e-06,8.883368669299994413e-02,9.960464728650916255e-01,1.573566889241334934e+02
4.710352110561289329e+00,1.731397245717880118e+00,-8.648076376731059778e-01,2.527088597949779683e-06,1.808758500824078908e-01,9.835059363575697766e-01,1.587915644871470704e+02
4.632619661845680525e+00,1.459896376943374596e+00,-7.597078908702852296e-01,3.825648547293904635e-06,2.738200131446539842e-01,9.617809523934365279e-01,1.605810116952865769e+02
4.547896179309613096e+00,1.202566493151904448e+00,-6.399470369458395425e-01,5.100864728142296137e-06,3.650933507462421623e-01,9.309709153431500184e-01,1.623704589034260835e+02
4.456491621370257228e+00,9.621618214823185466e-01,-5.044388461664711665e-01,6.317721489100042224e-06,4.521896247927177370e-01,8.919218257167539354e-01,1.641599061115655900e+02
4.358699444200626161e+00,7.415351651526245202e-01,-3.520033790706769694e-01,7.446785062466692947e-06,5.330021193746082853e-01,8.461139052673234406e-01,1.659493533197050965e+02
4.254799266480642217e+00,5.436550749546131822e-01,-1.813599648521568020e-01,8.467482058952190987e-06,6.060582983568790771e-01,7.954202278802481318e-01,1.677388005278446030e+02
4.145233048367080286e+00,3.703338660823701778e-01,8.019399395715862827e-03,5.384642208582137162e-05,6.356330133742228439e-01,7.719913661494977042e-01,1.695282477359841096e+02
4.030767867799691651e+00,2.209468008479706369e-01,2.150521704369976750e-01,1.049618407920475168e-04,6.679196212344669092e-01,7.442334099951561921e-01,1.713176949441236161e+02
3.981472151655075287e+00,1.680064192515204613e-01,3.079095241281450401e-01,1.626364625218803530e-04,7.030315852961996903e-01,7.111586065184708483e-01,1.720628151552534177e+02
3.859883487015828951e+00,6.203964097474043426e-02,5.454847837153362633e-01,2.277262930262315967e-04,7.409513602896599105e-01,6.715586570253100351e-01,1.738522623633929243e+02
3.735726464185983087e+00,-2.379840343916341319e-02,7.961692815591422390e-01,3.010362309970729465e-04,7.814319384092685006e-01,6.239904125955147984e-01,1.756417095715324308e+02
3.609815148679623054e+00,-9.092566287229766897e-02,1.058384309885583630e+00,3.831645266399210368e-04,8.238543598303454951e-01,5.668014175824517276e-01,1.774311567796719373e+02
3.482941566809167444e+00,-1.406550637510655954e-01,1.330619777126061720e+00,4.742462752663097452e-04,8.670410817349145649e-01,4.982364274864091169e-01,1.792206039878114439e+02
3.355881315168140588e+00,-1.742021923676599360e-01,1.611425221614747549e+00,5.735798693737170642e-04,9.090518441418524720e-01,4.166826318295863696e-01,1.810100511959509504e+02
3.229399009014587207e+00,-1.926924421287254108e-01,1.899401180132661127e+00,6.791735695608752807e-04,9.470420832216736029e-01,3.211087531202090339e-01,1.827994984040904569e+02
3.104253606613302185e+00,-1.971676672340139935e-01,2.193190859934296189e+00,7.873617808337414004e-04,9.773358300682366551e-01,2.116933048687584529e-01,1.845889456122299634e+02
2.981203645511870448e+00,-1.885923816463234426e-01,2.491472064699029598e+00,8.927831183795540641e-04,9.958975666817337924e-01,9.048336651399283004e-02,1.863783928203694700e+02
2.861012425878968202e+00,-1.678595397958943247e-01,2.792949326361233275e+00,9.890441219991179603e-04,9.992665696254628971e-01,-3.827982001896766684e-02,1.881678400285089765e+02
2.744453175417743473e+00,-1.357959332554188880e-01,3.096346195996682926e+00,1.070111302953807983e-03,9.856868986869277149e-01,-1.685828953919869533e-01,1.899572872366484830e+02
2.632314229979056730e+00,-9.316723561513397256e-02,3.400397647887702490e+00,1.131914998114859783e-03,9.558402692064736916e-01,-2.938844986244305568e-01,1.917467344447879896e+02
2.525404263829841067e+00,-4.068272597200360552e-02,3.703842551566014496e+00,1.173312000573109842e-03,9.126848002376171110e-01,-4.086625487540671564e-01,1.935361816529274961e+02
2.424557603578776810e+00,2.100028018645473671e-02,4.005416167036698560e+00,1.195919095646385492e-03,8.604813626947895866e-01,-5.094805140851165204e-01,1.953256288610670026e+02
2.330639660028372528e+00,9.127226538245983289e-02,4.303842618521393604e+00,1.203095560900703217e-03,8.036008499000490968e-01,-5.951673937649728519e-01,1.971150760692065091e+02
2.244552512707894909e+00,1.695675838068543273e-01,4.597827301933191002e+00,1.198758811145995062e-03,7.456770474389694536e-01,-6.663064639488451846e-01,1.989045232773460157e+02
2.167240682543803754e+00,2.553607493470884671e-01,4.886049180902745981e+00,1.186534905297826009e-03,6.892807514426111393e-01,-7.244933663089178077e-01,2.006939704854855222e+02
2.099697129048637034e+00,3.481629140721630988e-01,5.167152925510126948e+00,1.169359584925967711e-03,6.359779786116025457e-01,-7.717063193464602788e-01,2.024834176936250287e+02
2.042969509560796038e+00,4.475185140888426338e-01,5.439740846940988916e+00,1.149409371618428845e-03,5.865590494199207638e-01,-8.099056490738260061e-01,2.042728649017645353e+02
1.998166739450560669e+00,5.530020603636247589e-01,5.702364580072241118e+00,1.128199452221653656e-03,5.412888988770070409e-01,-8.408359263961745489e-01,2.060623121099040418e+02
1.966465893829204115e+00,6.642150526373583608e-01,5.953516464492011551e+00,1.106733011637498843e-03,5.001116602475398354e-01,-8.659602198868548983e-01,2.078517593180435483e+02
1.949119493167054573e+00,7.807829949452743667e-01,6.191620572663435240e+00,1.085643610914830944e-03,4.627953594992383346e-01,-8.864644812985575939e-01,2.096412065261830548e+02
1.947463217352701337e+00,9.023524914971594590e-01,6.415023331842566456e+00,1.065309812990342326e-03,4.290253040927120565e-01,-9.032918429628147283e-01,2.114306537343225614e+02
1.948808043449832050e+00,9.137520798826442858e-01,6.433838818578742291e+00,1.266338605498175396e-02,3.487416915352185010e-01,-9.371333262875548575e-01,2.115925956572922644e+02
1.980954516523268927e+00,1.042754016689742658e+00,6.625763088833670267e+00,2.444332817433485586e-02,2.637031904760491208e-01,-9.642941206087043415e-01,2.133820428654317709e+02
2.031747948566927420e+00,1.171775224530899884e+00,6.801108748878115229e+00,3.611932581832576206e-02,1.758021264401438688e-01,-9.837626780080412914e-01,2.151714900735712774e+02
2.102673012242167072e+00,1.296657947412399814e+00,6.959737868233879077e+00,4.740620083334229351e-02,8.718542208773574775e-02,-9.950634925962926758e-01,2.169609372817107840e+02
2.195300122512921170e+00,1.413206850625985389e+00,7.101413039006288841e+00,5.805322569842741309e-02,0.000000000000000000e+00,-9.983134893338903026e-01,2.187503844898502905e+02
2.309914563325809134e+00,1.518310027121911210e+00,7.225876133700637638e+00,5.359482818827968065e-02,0.000000000000000000e+00,-9.985627643726100455e-01,2.205398316979897970e+02
2.416267598830923458e+00,1.591770705558822385e+00,7.310615423569182703e+00,4.913438285009681661e-02,0.000000000000000000e+00,-9.987921767925198591e-01,2.219564350931181878e+02
2.567019301361470163e+00,1.672394010638789785e+00,7.399983934533902463e+00,4.467215572951321184e-02,0.000000000000000000e+00,-9.990017009507432544e-01,2.237458823012576943e+02
2.730842120014192353e+00,1.740907578182187443e+00,7.471328926823787242e+00,4.020841333563208303e-02,0.000000000000000000e+00,-9.991913147626089176e-01,2.255353295093972008e+02
2.904283052936737164e+00,1.797431752816838646e+00,7.524214245129758005e+00,3.574342256154659087e-02,0.000000000000000000e+00,-9.993609997111086996e-01,2.273247767175367073e+02
3.083947707482736167e+00,1.842044073089879719e+00,7.558093883622435172e+00,3.127745060461391974e-02,0.000000000000000000e+00,-9.995107408545822469e-01,2.291142239256762139e+02
3.266479549064058130e+00,1.874779329210320089e+00,7.572308736763418757e+00,2.681076488653763232e-02,0.000000000000000000e+00,-9.996405268326203908e-01,2.309036711338157204e+02
3.448539377567573894e+00,1.895629538895374555e+00,7.566082677079874586e+00,2.234363297331398365e-02,0.000000000000000000e+00,-9.997503498701832969e-01,2.326931183419552269e+02
3.626784907350245835e+00,1.904543839784105019e+00,7.538517936561689226e+00,1.787632249509846921e-02,0.000000000000000000e+00,-9.998402057799292697e-01,2.344825655500947335e+02
3.797850327438053508e+00,1.901428297423443325e+00,7.488589764196746046e+00,1.340910106604807119e-02,0.000000000000000000e+00,-9.999100939627525442e-01,2.362720127582342400e+02
3.847108484294342823e+00,1.896856878364471255e+00,7.466218689444502843e+00,8.942236204195716867e-03,0.000000000000000000e+00,-9.999600174065303992e-01,2.368194289627055866e+02
3.995703683062299394e+00,1.869982975339856912e+00,7.369089415489270323e+00,4.475995251412457666e-03,0.000000000000000000e+00,-9.999899826830813687e-01,2.386088761708450932e+02
4.128863625969915851e+00,1.830697125825603289e+00,7.246696183664867341e+00,1.064529351364108455e-05,0.000000000000000000e+00,-9.999999999433388798e-01,2.403983233789845997e+02
4.243113149348716640e+00,1.779331012324836259e+00,7.097370056012402451e+00,0.000000000000000000e+00,2.371239420780988857e-02,-9.997188216498343882e-01,2.421877705871241062e+02
4.278641314694680453e+00,1.755647226848454867e+00,7.029693915844065444e+00,0.000000000000000000e+00,3.073550539081862723e-02,-9.995275527509839275e-01,2.428707764763813941e+02
4.350481112258438365e+00,1.684459702087055533e+00,6.825187893109639248e+00,0.000000000000000000e+00,3.908292659588227802e-02,-9.992359705538531589e-01,2.446602236845209006e+02
4.402392801538629108e+00,1.605818146810825020e+00,6.595669634658198888e+00,0.000000000000000000e+00,4.916585692682323705e-02,-9.987906279659672926e-01,2.464496708926604072e+02
4.435972679822290488e+00,1.521797164581302653e+00,6.343594587092109549e+00,0.000000000000000000e+00,6.158400783488459512e-02,-9.981019036045332138e-01,2.482391181007999137e+02
4.452724210881338074e+00,1.434426177177499540e+00,6.071283965275989125e+00,0.000000000000000000e+00,7.724645037562707928e-02,-9.970120289667350200e-01,2.500285653089394202e+02
4.454066730620834136e+00,1.345702293168208552e+00,5.780938565497235615e+00,0.000000000000000000e+00,9.759769008487688413e-02,-9.952259496667559269e-01,2.518180125170789267e+02
4.441343754536403843e+00,1.257602911913945798e+00,5.474651862036432171e+00,0.000000000000000000e+00,1.250715684398278349e-01,-9.921477222510775018e-01,2.536074597252184333e+02
4.415830934989349643e+00,1.172098141446483943e+00,5.154422465083152716e+00,0.000000000000000000e+00,1.640851679572246924e-01,-9.864461757523566021e-01,2.553969069333579398e+02
4.378743714857422198e+00,1.091163107163772183e+00,4.822166014132153400e+00,0.000000000000000000e+00,2.234584204830596943e-01,-9.747134626726031703e-01,2.571863541414974748e+02
4.331244722939130654e+00,1.016790227239372069e+00,4.479726577635592122e+00,0.000000000000000000e+00,3.230496668392998649e-01,-9.463820120622631338e-01,2.589758013496369813e+02
4.274450955575240130e+00,9.510015300698003715e-01,4.128887626750699980e+00,0.000000000000000000e+00,5.127887527931589418e-01,-8.585148193297751362e-01,2.607652485577764878e+02
4.209440788294263491e+00,8.958610889401266153e-01,3.771382648487847877e+00,0.000000000000000000e+00,8.706212590001416451e-01,-4.919538833844167014e-01,2.625546957659159943e+02
4.137260860906991411e+00,8.534876494533042424e-01,3.408905461408979320e+00,0.000000000000000000e+00,9.213092206869870626e-01,3.888307085058181900e-01,2.643441429740555009e+02
4.058932879370561686e+00,8.260675261036977135e-01,3.043120295256655616e+00,0.000000000000000000e+00,6.078900050869660010e-01,7.940212476472959802e-01,2.661335901821950074e+02
3.975460377877875651e+00,8.158678455429392296e-01,2.675671694504668796e+00,0.000000000000000000e+00,4.294834565055280495e-01,9.030747259158924400e-01,2.679230373903345139e+02
3.887833532057770380e+00,8.245544262026279769e-01,2.308234044281119779e+00,0.000000000000000000e+00,3.337998119581101486e-01,9.426439866337292806e-01,2.697124845984740205e+02
3.797026173826235862e+00,8.525060563339765807e-01,1.942561273852397186e+00,0.000000000000000000e+00,2.761644812882120825e-01,9.611103887040306493e-01,2.715019318066135270e+02
3.703992760140732088e+00,8.995127063406536116e-01,1.580457554425465538e+00,0.000000000000000000e+00,2.380625113918593827e-01,9.712498343216336982e-01,2.732913790147530335e+02
3.609673048890973401e+00,9.654702150261339488e-01,1.223748295954327103e+00,0.000000000000000000e+00,2.111231383017517504e-01,9.774594725479003321e-01,2.750808262228925400e+02
3.514998633071177991e+00,1.050379763445618009e+00,8.742910098614573577e-01,0.000000000000000000e+00,1.911111491403898743e-01,9.815684024428658061e-01,2.768702734310320466e+02
3.420899423891967217e+00,1.154347923361518147e+00,5.339863627842511562e-01,0.000000000000000000e+00,1.756771354860080514e-01,9.844478371490440471e-01,2.786597206391715531e+02
3.328310126619920428e+00,1.277587280872836129e+00,2.047894871284857421e-01,0.000000000000000000e+00,1.634199761417596819e-01,9.865565931044335546e-01,2.804491678473110596e+02
3.238176752901986699e+00,1.420417638825114404e+00,-1.112783842633195269e-01,0.000000000000000000e+00,1.534547004266003933e-01,9.881556835423163099e-01,2.822386150554505662e+02
3.151463213593900026e+00,1.583267804693788472e+00,-4.121178900926709132e-01,0.000000000000000000e+00,1.451958372442001544e-01,9.894029355358492372e-01,2.840280622635900727e+02
3.069158036665273315e+00,1.766677973757753151e+00,-6.955390476566323255e-01,-0.000000000000000000e+00,1.382410334876689184e-01,9.903986150334931349e-01,2.858175094717295792e+02
2.992026184991252169e+00,1.970494038151417771e+00,-9.601078852433969635e-01,5.776314529315147489e-05,1.372232817422963658e-01,9.905401393236386021e-01,2.876069566798690857e+02
2.920350461845147905e+00,2.193060588716163384e+00,-1.205997573421694558e+00,1.155274531792854325e-04,1.362053630853490016e-01,9.906806174142076538e-01,2.893964038880085923e+02
2.887495036862320230e+00,2.311331441554100419e+00,-1.318776799756780971e+00,1.732927401313260935e-04,1.351872807420868849e-01,9.908200487955349800e-01,2.902817001564271209e+02
2.826454811803760236e+00,2.565019259257974138e+00,-1.529247268023062434e+00,2.310588226023645847e-04,1.341690379395151234e-01,9.909584329679048675e-01,2.920711473645666274e+02
2.771153796686304016e+00,2.831452184809580164e+00,-1.722734713394937778e+00,2.888255170285740749e-04,1.331506379063326362e-01,9.910957694415597485e-01,2.938605945727061339e+02
2.721685529872734044e+00,3.108535890664433587e+00,-1.899848938194117265e+00,3.465926398321257629e-04,1.321320838728811675e-01,9.912320577367097485e-01,2.956500417808456405e+02
2.678161192678794489e+00,3.394238818330613583e+00,-2.061102310468803100e+00,4.043600074241052601e-04,1.311133790710938551e-01,9.913672973835399027e-01,2.974394889889851470e+02
2.640710753817545609e+00,3.686579887765781827e+00,-2.206912813005293295e+00,4.621274362074293375e-04,1.300945267344441048e-01,9.915014879222188160e-01,2.992289361971246535e+02
2.609484124496678437e+00,3.983616498688827612e+00,-2.337606530668802751e+00,5.198947425797635418e-04,1.290755300978941589e-01,9.916346289029061012e-01,3.010183834052641600e+02
2.584652333261898249e+00,4.283432751993468734e+00,-2.453419590875914658e+00,5.776617429364394032e-04,1.280563923978438601e-01,9.917667198857603728e-01,3.028078306134036666e+02
2.566408729199624705e+00,4.584127820690540034e+00,-2.554499568745748128e+00,6.354282536733726200e-04,1.270371168720793031e-01,9.918977604409459081e-01,3.045972778215431731e+02
2.554970221692195231e+00,4.883804400629069953e+00,-2.640906365291895597e+00,6.931940911899802131e-04,1.260177067597210709e-01,9.920277501486401972e-01,3.063867250296826796e+02
2.550578564552406835e+00,5.180557171655361337e+00,-2.712612563881203531e+00,7.509590718920985475e-04,1.249981653011732613e-01,9.921566885990402707e-01,3.081761722378221862e+02
2.553501692047270843e+00,5.472461199866292425e+00,-2.769503267080206221e+00,8.087230121949011375e-04,1.239784957380715563e-01,9.922845753923692502e-01,3.099656194459616927e+02
2.564035114047912067e+00,5.757560211199909794e+00,-2.811375412918316385e+00,8.664857285258152587e-04,1.229587013132319440e-01,9.924114101388827880e-01,3.117550666541011992e+02
2.582503377307014514e+00,6.033854665778283888e+00,-2.837936566499142721e+00,9.242470373274393192e-04,1.219387852705990094e-01,9.925371924588745065e-01,3.135445138622407057e+02
2.609261599662870079e+00,6.299289561168778029e+00,-2.848803179769049621e+00,9.820067550604589298e-04,1.209187508551944762e-01,9.926619219826821050e-01,3.153339610703802123e+02
2.644697083795497505e+00,6.551741891053619149e+00,-2.843498309087202802e+00,1.039764698206562974e-03,1.198986013130654976e-01,9.927855983506927995e-01,3.171234082785197188e+02
2.689231017010648372e+00,6.789007683684133987e+00,-2.821448777014707865e+00,1.097520683271357945e-03,1.188783398912330036e-01,9.929082212133477636e-01,3.189128554866592253e+02
2.743320263397370340e+00,7.008788541931546767e+00,-2.781981761433123701e+00,1.155274526787283687e-03,1.178579698376401169e-01,9.930297902311479019e-01,3.207023026947987319e+02
2.786330132698957129e+00,7.143415831186631593e+00,-2.743250865359137425e+00,1.213026045316524699e-03,1.168374944011003752e-01,9.931503050746579575e-01,3.219063462720048392e+02
2.860479413580526487e+00,7.321551276431335076e+00,-2.666892510584168541e+00,1.270775055453924251e-03,1.158169168312461056e-01,9.932697654245107310e-01,3.236957934801443457e+02
2.945399786354264027e+00,7.475196124401469966e+00,-2.571094410508680372e+00,1.166485428797343071e-01,-1.371546479450316434e-03,9.931723094731795820e-01,3.254852406882838523e+02
3.041400296612136067e+00,7.601656093551806492e+00,-2.455553781996086204e+00,5.852172849897627899e-02,-5.932126524122717515e-02,9.965220493213745590e-01,3.272746878964233588e+02
3.148729956984646972e+00,7.698111386963823577e+00,-2.320120001109615693e+00,0.000000000000000000e+00,-1.168706797253571267e-01,9.931471412739065752e-01,3.290641351045628653e+02
3.158755160496407921e+00,7.703735924977488381e+00,-2.307044046896225442e+00,-4.798181968707102701e-02,-1.016231123114223339e-01,9.936651790334898315e-01,3.292153625287762679e+02
3.288137681155035796e+00,7.740571293482937598e+00,-2.133759838433369360e+00,-9.674323204623701267e-02,-8.582310341678096866e-02,9.916023103911972836e-01,3.310048097369157745e+02
3.426943856191721149e+00,7.747891821987519911e+00,-1.943218119735189431e+00,-1.459104616868319715e-01,-6.957691089823439534e-02,9.868481092043468461e-01,3.327942569450552810e+02
3.573377976389092492e+00,7.728807585859072127e+00,-1.737920103518095338e+00,-1.950842759364364576e-01,-5.300608635458222556e-02,9.793530926543944082e-01,3.345837041531947875e+02
3.725715757170100950e+00,7.686285725187470774e+00,-1.520279190251661028e+00,-2.438553433815850435e-01,-3.624321386246831533e-02,9.691341501325648755e-01,3.363731513613342941e+02
3.882292849638524945e+00,7.623167619661331607e+00,-1.292635329898407903e+00,-2.918209178790312497e-01,-1.942671940285594506e-02,9.562756686549556129e-01,3.381625985694738006e+02
4.041493853446686657e+00,7.542185406574215101e+00,-1.057268946562682999e+00,-3.386013016516420948e-01,-2.695212407333525632e-03,9.409260833614364605e-01,3.399520457776133071e+02
4.201741760358278732e+00,7.445977936726507096e+00,-8.164145089119737575e-01,-3.838545410835372262e-01,1.381810907481310045e-02,9.232901771118025014e-01,3.417414929857528136e+02
4.361487760747767339e+00,7.337106260215003672e+00,-5.722738271256896381e-01,-4.272880650177586226e-01,2.999047606933331889e-02,9.036179949727176641e-01,3.435309401938923202e+02
4.519201348223457870e+00,7.218068731850265429e+00,-3.270291554981484272e-01,-4.155184289857226099e-01,2.916438936890355590e-02,9.091170846299040376e-01,3.453203874020318267e+02
4.673360660098973440e+00,7.091315824203954676e+00,-8.285617866667739639e-02,-4.036126790660274910e-01,2.832874911286400316e-02,9.144912723863712900e-01,3.471098346101713332e+02
4.822442993588680338e+00,6.959264735056779116e+00,1.580630412546260577e-01,-3.915752947669591810e-01,2.748386970874684698e-02,9.197355192847570526e-01,3.488992818183108398e+02
4.964915439387674212e+00,6.824313875286231124e+00,3.935270795893057172e-01,-3.794110339083281991e-01,2.663008509820141353e-02,9.248449091151855761e-01,3.506887290264503463e+02
5.099225575725667703e+00,6.688857323003381872e+00,6.213020487900368094e-01,-3.671249261886052606e-01,2.576774830548456477e-02,9.298146652523159306e-01,3.524781762345898528e+02
5.223792167068574521e+00,6.555299330021139070e+00,8.391083049486904866e-01,-3.547222653824797511e-01,2.489723088982329080e-02,9.346401673028719159e-01,3.542676234427293593e+02
5.336995812398308558e+00,6.426068967514738439e+00,1.044606882017307337e+00,-3.422086001758700147e-01,2.401892230214279847e-02,9.393169674487494847e-01,3.560570706508688659e+02
5.437169488436905951e+00,6.303634999027666552e+00,1.235385573016166028e+00,-3.295897236576689759e-01,2.313322914751361065e-02,9.438408063696283046e-01,3.578465178590083724e+02
5.522588933296842306e+00,6.190521070793431058e+00,1.408944575401317900e+00,-3.168716615000068404e-01,2.224057435554836412e-02,9.482076286291732936e-01,3.596359650671478789e+02
5.591462815845684275e+00,6.089321311698832062e+00,1.562681615163580506e+00,-3.040606588713766212e-01,2.134139626186083369e-02,9.524135974104414037e-01,3.614254122752873855e+02
5.641922635578968226e+00,6.002716438123907317e+00,1.693876461134806721e+00,-2.911631661394118442e-01,2.043614760457312246e-02,9.564551084890274835e-01,3.632148594834268920e+02
5.651053441040626346e+00,5.981861359030395953e+00,1.725683290137068004e+00,-2.781858234322478474e-01,1.952529444070915179e-02,9.603288033368184706e-01,3.637499703132935451e+02
5.660322125600921517e+00,5.930928857249883279e+00,1.805200531005179077e+00,-2.651354441390411654e-01,1.860931498812984364e-02,9.640315812549223873e-01,3.655394175214330517e+02
5.646448617466609754e+00,5.901408205057629530e+00,1.855128585496924609e+00,-2.520189974411825018e-01,1.768869839943465472e-02,9.675606104413693176e-01,3.673288647295725582e+02
5.608399512436457179e+00,5.896210078118020448e+00,1.872489467765892091e+00,-2.388435899758428738e-01,1.676394347496336021e-02,9.709133379074673664e-01,3.691183119377120647e+02
5.555533187538620687e+00,5.913833471136170417e+00,1.858305759936637935e+00,-2.256164467425616216e-01,1.583555732266847191e-02,9.740874981661254983e-01,3.706709988465224797e+02
5.474143761567830779e+00,5.957940644854954115e+00,1.809992320902397811e+00,-2.123448913714801878e-01,1.490405397318290276e-02,9.770811206259175652e-01,3.724604460546619862e+02
5.374687203121617962e+00,6.022710815318658817e+00,1.732784242358797133e+00,-1.990363258784044187e-01,1.396995295886916365e-02,9.798925356360015382e-01,3.742498932628014927e+02
5.259483282115909653e+00,6.104980074305220938e+00,1.629694214225595239e+00,-1.856982100370354882e-01,1.303377786599839612e-02,9.825203791390694219e-01,3.760393404709409992e+02
5.130730866733674844e+00,6.201670040997075084e+00,1.503580907305226866e+00,-1.723380405023600959e-01,1.209605486946380322e-02,9.849635959021033615e-01,3.778287876790805058e+02
4.990521779118997969e+00,6.309770428515438567e+00,1.357165984748896603e+00,-1.589633298212765611e-01,1.115731125957940099e-02,9.872214413076677575e-01,3.796182348872200123e+02
4.840853862535899665e+00,6.426321904106469418e+00,1.193050298214201721e+00,-1.455815854670262088e-01,1.021807397054957239e-02,9.892934817015824889e-01,3.814076820953595188e+02
4.683643340564790591e+00,6.548399146868971954e+00,1.013729365099023116e+00,-1.322002890328993208e-01,9.278868120117831492e-03,9.911795933058888952e-01,3.831971293034990254e+02
4.520736543828620668e+00,6.673094007437232911e+00,8.216082189430008453e-01,-1.188268757180232366e-01,8.340215569716202815e-03,9.928799597188696646e-01,3.849865765116385319e+02
4.353921075132752172e+00,6.797498674026427601e+00,6.190157213625734345e-01,-1.054687142338719547e-01,7.402633514144211190e-03,9.943950680362956263e-01,3.867760237197780384e+02
4.184936479762825456e+00,6.918688748707676694e+00,4.082184207087748429e-01,-9.213308725454805170e-02,6.466633109414098718e-03,9.957257036399000949e-01,3.885654709279175449e+02
4.015484483884078415e+00,7.033706136698478772e+00,1.914340399181391483e-01,-7.882717252698642763e-02,5.532718146914636544e-03,9.968729437101337965e-01,3.903549181360570515e+02
3.847238860546683625e+00,7.139541649822054303e+00,-2.915532619041588322e-02,-6.555802474914407263e-02,4.601383781478314908e-03,9.978381495304167181e-01,3.921443653441965580e+02
3.681854979734906053e+00,7.233117223093541881e+00,-2.513902256355878273e-01,-5.233255831511958445e-02,3.673115320296518709e-03,9.986229576592150492e-01,3.939338125523360645e+02
3.520979096137648590e+00,7.311267640616619268e+00,-4.731209987373862225e-01,-3.915753101614934117e-02,2.748387078925774909e-03,9.992292700542672046e-01,3.957232597604755711e+02
3.366257425850141427e+00,7.370721663605480423e+00,-6.921949858546084799e-01,-2.603952877572816849e-02,1.827661309877060165e-03,9.996592432400523975e-01,3.975127069686150776e+02
3.263805857506634656e+00,7.396874425740171510e+00,-8.415521015595286425e-01,-1.298495148587607007e-02,9.113872084923200275e-04,9.999152766151068183e-01,3.987595781632026615e+02
3.125965382805836690e+00,7.409455993051788703e+00,-1.049179407987635981e+00,-0.000000000000000000e+00,0.000000000000000000e+00,1.000000000000000000e+00,4.005490253713421680e+02
2.998524190942028156e+00,7.394683989450746786e+00,-1.247719289224565431e+00,-7.777046599064189446e-04,-3.195634456450106853e-02,9.994889630293757321e-01,4.023384725794816745e+02
2.881914793506318073e+00,7.351582793347163580e+00,-1.434205713687448203e+00,-1.562015862861901002e-03,-6.418415589130940790e-02,9.979368488230927481e-01,4.041279197876211811e+02
2.776190481509446695e+00,7.279971400041236329e+00,-1.605375801970592375e+00,-2.350539582827233971e-03,-9.658506203417147051e-02,9.953219583408801086e-01,4.059173669957606876e+02
2.681467693825640097e+00,7.179497749052126565e+00,-1.757875529738817555e+00,-3.140787299736868057e-03,-1.290568082313889309e-01,9.916322280484152207e-01,4.077068142039001941e+02
2.614596215873730589e+00,7.075516145589747730e+00,-1.862410606640018118e+00,-3.930213598173634866e-03,-1.614948018576063127e-01,9.868657367616149312e-01,4.091400427486407807e+02
2.541845817341614300e+00,6.917245601032874447e+00,-1.969111583037200575e+00,-4.716256306903123842e-03,-1.937937617810248925e-01,9.810309550779766630e-01,4.109294899567802872e+02
2.477886697677672778e+00,6.734196538319800140e+00,-2.052805956694220946e+00,-5.496377736494276363e-03,-2.258494128416290991e-01,9.741467202382140256e-01,4.127189371649197938e+02
2.420168064097060423e+00,6.531297701654633414e+00,-2.115489846346696456e+00,-6.268105482203986320e-03,-2.575601624658536148e-01,9.662419332466518629e-01,4.145083843730593003e+02
2.366217738440826945e+00,6.313380376516648518e+00,-2.159034340881455183e+00,-7.029071270559785096e-03,-2.888286968956476630e-01,9.573549895449625646e-01,4.162978315811988068e+02
2.313626604842339951e+00,6.085206658432104732e+00,-2.185196633867544147e+00,-7.777046440636144892e-03,-3.195634391351086512e-01,9.475329682479665117e-01,4.180872787893383133e+02
2.260033672932188153e+00,5.851497436536612362e+00,-2.195630480316492328e+00,-8.509972854394485045e-03,-3.496798190746399082e-01,9.368306167573433596e-01,4.198767259974778199e+02
2.241215431703920569e+00,5.772626004842281944e+00,-2.194324093909043150e+00,-6.877848320088649804e-03,-2.826148563975110495e-01,9.592088084175937057e-01,4.204765369427443602e+02
2.181314143990815246e+00,5.539121210083734148e+00,-2.177324076761558480e+00,-5.185199879576453050e-03,-2.130629306085078944e-01,9.770247188800920135e-01,4.222659841508838667e+02
2.116022546018478945e+00,5.311692310544303020e+00,-2.148824188225569642e+00,-3.456799937284146546e-03,-1.420419544608236273e-01,9.898546023063907739e-01,4.240554313590233733e+02
2.043752020870007069e+00,5.095325915960521534e+00,-2.110731063722561363e+00,-1.719462105965261032e-03,-7.065371516539502295e-02,9.974994215453928392e-01,4.258448785671628798e+02
1.992173261728932276e+00,4.966746820748542568e+00,-2.081275274946094989e+00,-0.000000000000000000e+00,0.000000000000000000e+00,1.000000000000000000e+00,4.269912732805660198e+02
1.903019919881792088e+00,4.785793775873155020e+00,-2.028272078638650555e+00,-1.351198193333390566e-07,1.096196809539918923e-12,9.999999999999908962e-01,4.287807204887055263e+02
1.806182627049863099e+00,4.628678835807436442e+00,-1.967906135880462370e+00,-2.702396386666707016e-07,2.192393619079777665e-12,9.999999999999635847e-01,4.305701676968450329e+02
1.742528887895384848e+00,4.548466668867858331e+00,-1.925486081078451539e+00,-4.053594579999875235e-07,3.288590428619516247e-12,9.999999999999178435e-01,4.316784547532282659e+02
1.635324995622589483e+00,4.450210543637014737e+00,-1.848164429733389236e+00,-5.404792773332821109e-07,4.384787238159074692e-12,9.999999999998538946e-01,4.334679019613677724e+02
1.525771444070251892e+00,4.386879343216458338e+00,-1.760836179337011087e+00,2.094947940737120276e-02,-4.275178824966328894e-02,9.988660590459643718e-01,4.352573491695072789e+02
1.417239975496053184e+00,4.361326133945536476e+00,-1.661553695175027823e+00,4.398128735217857882e-02,-8.975178734250394141e-02,9.949925944607181938e-01,4.370467963776467855e+02
1.312684708835442748e+00,4.374174351558047569e+00,-1.548822557143783696e+00,6.920020859202127839e-02,-1.412149289726895018e-01,9.875574286926604994e-01,4.388362435857862920e+02
1.263488856979329444e+00,4.398320614198769185e+00,-1.486487186394702675e+00,9.664043332090463401e-02,-1.972109824994590088e-01,9.755862109671015192e-01,4.397205030132036541e+02
1.169073734030392053e+00,4.479922715095180585e+00,-1.347636513050089579e+00,1.262252654855078593e-01,-2.575834364239761309e-01,9.579759681918583736e-01,4.415099502213431606e+02
1.079970964343794471e+00,4.590809859216097522e+00,-1.196760892180198876e+00,1.577217838714941034e-01,-3.218569773208764806e-01,9.335587421486997162e-01,4.432993974294826671e+02
9.962407202872868295e-01,4.727016595391827281e+00,-1.034538292653186975e+00,1.906984166755939791e-01,-3.891509142521391573e-01,9.012189965897000610e-01,4.450888446376221737e+02
9.179426670780712616e-01,4.884728236195431172e+00,-8.615791593906207968e-01,2.245002647209000668e-01,-4.581288221243242087e-01,8.600683772115010894e-01,4.468782918457616802e+02
8.451374941183419365e-01,5.060258065071405298e+00,-6.784300460291615709e-01,2.582611374277519745e-01,-5.270231032033974028e-01,8.096590847908673449e-01,4.486677390539011867e+02
7.778829571788342667e-01,5.250045493947167685e+00,-4.856962833680693037e-01,2.909678187103234004e-01,-5.937661319430295181e-01,7.501863162124255968e-01,4.504571862620406932e+02
7.162299477344573617e-01,5.450655022712354025e+00,-2.841649975840867537e-01,3.215769774038332862e-01,-6.562288291119623418e-01,6.826067472902370703e-01,4.522466334701801998e+02
6.602290723029412556e-01,5.658735568357612600e+00,-7.469037829255631422e-02,3.491615416143998285e-01,-7.125193614943965414e-01,6.086069153017186206e-01,4.540360806783197063e+02
6.099368326976606358e-01,5.870980229737864597e+00,1.419206543077852767e-01,3.730442138156914722e-01,-7.612556000893149211e-01,5.304035500176157436e-01,4.558255278864592128e+02
5.654162539350738870e-01,6.084106478412103058e+00,3.649036475888673969e-01,3.928760381654278766e-01,-8.017254486489046039e-01,4.504272678514811279e-01,4.576149750945987194e+02
5.267373852080711183e-01,6.294836490357867298e+00,5.935320673622127563e-01,4.086403139156838948e-01,-8.338948292354450009e-01,3.709885545637213178e-01,4.594044223027382259e+02
4.939776776319814156e-01,6.499877502098773796e+00,8.271129743921549204e-01,4.205926178787798286e-01,-8.582852884066313193e-01,2.940207705088544454e-01,4.611938695108777324e+02
4.672222407476918082e-01,6.695902074912385871e+00,1.064982900826742851e+00,4.291675522384982844e-01,-8.757837014060487757e-01,2.209482302647767238e-01,4.629833167190172389e+02
4.465639780576639573e-01,6.879528150225387328e+00,1.306503902004054529e+00,4.348842495185601953e-01,-8.874494402702384210e-01,1.526734439407166910e-01,4.647727639271567455e+02
4.321045524261175053e-01,7.047638169612207015e+00,1.551189085444737659e+00,4.382713295194957115e-01,-8.943612368059961071e-01,8.964496539160744792e-02,4.665622111352962520e+02
4.239590534936741317e-01,7.197699752035250143e+00,1.798829038743176678e+00,4.398182440084103528e-01,-8.975178939412270518e-01,3.196157525315222736e-02,4.683516583434357585e+02
4.222606036860493961e-01,7.327411035769062053e+00,2.049361258094572591e+00,4.399504259601554335e-01,-8.977875739862013482e-01,-2.052059193709268939e-02,4.701411055515752651e+02
4.271611363265735428e-01,7.434347375584486883e+00,2.302740451041198178e+00,4.390216570551887521e-01,-8.958922234213534397e-01,-6.809631891416674521e-02,4.719305527597147716e+02
4.317850938041007947e-01,7.467584655232299973e+00,2.405892803442568173e+00,4.465345860315215742e-01,-8.868085514093823063e-01,-1.190691254055840503e-01,4.726516880257685784e+02
4.497781190044353172e-01,7.525547972711211564e+00,2.663614017654996058e+00,4.531411450171017874e-01,-8.745815003057322290e-01,-1.725407256724180716e-01,4.744411352339080850e+02
4.742695903434236970e-01,7.560035339928763420e+00,2.921796608619966484e+00,4.585936620858765411e-01,-8.588540957471167969e-01,-2.281698825723217083e-01,4.762305824420475915e+02
5.051818680509261306e-01,7.572287382348331874e+00,3.179027762620586728e+00,4.626394921770791147e-01,-8.393234339904206420e-01,-2.854835782188921978e-01,4.780200296501870980e+02
5.424857779606280239e-01,7.563412330678429107e+00,3.433889004045367344e+00,4.650372916389559075e-01,-8.157744903459358543e-01,-3.438783190111489030e-01,4.798094768583266045e+02
5.861993482011870205e-01,7.534392239804470037e+00,3.684947754277335452e+00,4.655764465766535909e-01,-7.881136479273173068e-01,-4.026356297494707581e-01,4.815989240664661111e+02
6.363868786490014529e-01,7.486088463110061042e+00,3.930748806658713068e+00,4.640974304045078491e-01,-7.563964501566109444e-01,-4.609533439323447723e-01,4.833883712746056176e+02
6.931583314119833528e-01,7.419246412145425573e+00,4.169805666799978994e+00,4.605099699756550202e-01,-7.208436405114595491e-01,-5.179913256872233918e-01,4.851778184827451241e+02
7.566690327767522373e-01,7.334499627420787427e+00,4.400591706700579309e+00,4.548056361289383176e-01,-6.818407031867564916e-01,-5.729267743989114869e-01,4.869672656908846307e+02
8.271196791223575095e-01,7.232373182059194328e+00,4.621531080040865547e+00,4.470621315200411505e-01,-6.399189236715407958e-01,-6.250113772466977524e-01,4.887567128990241372e+02
9.047566412963085059e-01,7.113286436111332378e+00,4.830989344584041945e+00,4.374380850051464154e-01,-5.957197958005600036e-01,-6.736214416705940122e-01,4.905461601071636437e+02
9.898725638754005685e-01,6.977555155492197514e+00,5.027263735884853979e+00,4.261591462523097729e-01,-5.499482019620368645e-01,-7.182933643186640849e-01,4.923356073153031502e+02
1.082807257606935414e+00,6.825393005726500206e+00,5.208573034425605819e+00,4.134979478783338824e-01,-5.033219520478329212e-01,-7.587400475045229520e-01,4.941250545234426568e+02
1.112760771936315507e+00,6.775637486392688480e+00,5.257328811515198375e+00,3.997514909870933386e-01,-4.565253286017778578e-01,-7.948480167922887807e-01,4.946543778251885897e+02
1.222556320373306749e+00,6.591494383323413864e+00,5.404292654848203981e+00,3.852194889804619327e-01,-4.101724549717657431e-01,-8.266586372209913103e-01,4.964438250333280962e+02
1.341007909271131782e+00,6.391137714796486513e+00,5.531559544686069252e+00,3.701863550975760808e-01,-3.647834475385021702e-01,-8.543389836016475058e-01,4.982332722414676027e+02
1.469864893569112541e+00,6.175709836122919683e+00,5.637627817889264925e+00,3.549082712986311727e-01,-3.207734676568037013e-01,-8.781483367923934580e-01,5.000227194496071093e+02
1.613366810032211163e+00,5.948895719203500576e+00,5.722250185542812950e+00,3.242101598627593062e-01,-2.625111556082727615e-01,-9.088320336690235424e-01,5.018121666577466158e+02
1.775792302363195629e+00,5.715098512166858491e+00,5.785708622189165595e+00,2.912547442127291220e-01,-2.018730638581140435e-01,-9.351031708117107932e-01,5.036016138658861223e+02
