4.566262108156037058e+00,4.385606261378810267e+00,6.291226447670054789e+00,-3.947268070980813337e-01,6.157287890094902301e-03,-9.187779032845710958e-01,1.541067375480656949e+02
5.082788250344533409e+00,4.374817354532789082e+00,6.155474535610252040e+00,-5.115310235160972496e-01,1.260869195897365742e-02,-8.591722952165401495e-01,1.561392881981315952e+02
5.553010470782163921e+00,4.372136189539348017e+00,5.959972632179350249e+00,-6.233342370542738209e-01,1.906871858347671672e-02,-7.817229770753515439e-01,1.581718388481974955e+02
5.949310115386595932e+00,4.381363738174437472e+00,5.707766808148585724e+00,-7.235807810652624683e-01,2.517520960566685395e-02,-6.897804448477032890e-01,1.602043894982633958e+02
6.242334328625275042e+00,4.406719902206102546e+00,5.398724402886525553e+00,-8.075527232054412474e-01,3.062222586796724613e-02,-5.889998968814572633e-01,1.622369401483292961e+02
6.400293953171753536e+00,4.452928080961196855e+00,5.029526587617634270e+00,-8.733791759452803616e-01,3.523061444867273823e-02,-4.857649831252886519e-01,1.642694907983951964e+02
6.428721131164161662e+00,4.487890401819679020e+00,4.795167764690154044e+00,-8.717569836794138993e-01,1.791277520957493541e-01,-4.560186507537755118e-01,1.654076969039456060e+02
6.386280082313195550e+00,4.565322535630044420e+00,4.339301284178533002e+00,-8.489716123895176825e-01,3.296631559377587450e-01,-4.130004902828804392e-01,1.674402475540115063e+02
6.240523610485070982e+00,4.661664239900366269e+00,3.853892481217621402e+00,-8.035027011064844737e-01,4.755375690423412349e-01,-3.581165030320218601e-01,1.694727982040774066e+02
6.031085861343880694e+00,4.772531277259985494e+00,3.356740115871221342e+00,-7.388096050320216435e-01,6.056526075195004521e-01,-2.955423599372149490e-01,1.715053488541433069e+02
5.796013090099997100e+00,4.893463523544260063e+00,2.864984622755051724e+00,-6.621269057880017073e-01,7.129750327387287534e-01,-2.307695025838888137e-01,1.735378995042092072e+02
5.562896403619961738e+00,5.020900818273957178e+00,2.390237262135262775e+00,-6.669100277965567258e-01,7.255033489111263334e-01,-1.699291191736610751e-01,1.755704501542751075e+02
5.339768787497347624e+00,5.153270999767395111e+00,1.933399314336680996e+00,-6.692078205517658640e-01,7.363955679899160112e-01,-9.941056461546034229e-02,1.776030008043410078e+02
5.267930606795552251e+00,5.197822188539694466e+00,1.786142372973897441e+00,-6.676511780890324044e-01,7.442546006825803140e-01,-1.808296875903409040e-02,1.782733770249871270e+02
5.055080206589715353e+00,5.335079710097504702e+00,1.350569241859863823e+00,-6.604441240787072287e-01,7.471496460095496950e-01,7.470585946037860969e-02,1.803059276750530273e+02
4.850098084757926920e+00,5.475747881759994939e+00,9.306746770587287498e-01,-6.454352632881444896e-01,7.426359570718851222e-01,1.786201449111738115e-01,1.823384783251189276e+02
4.651880554287141756e+00,5.619482487314997776e+00,5.246032026349785049e-01,-6.204071815432876669e-01,7.280059817982995618e-01,2.917228471604647599e-01,1.843710289751848279e+02
4.459483224832287540e+00,5.765996837402082242e+00,1.312742428940665007e-01,-5.836540009341091295e-01,7.008808988018854214e-01,4.100170397535550237e-01,1.864035796252507282e+02
4.272098887895300123e+00,5.915055971806909341e+00,-2.496784529639005656e-01,-5.347463305463145966e-01,6.600814103768227747e-01,5.275783293902395199e-01,1.884361302753166285e+02
4.089038645828361851e+00,6.066471858006265983e+00,-6.179273422468883892e-01,-4.751143036991981039e-01,6.064035784192447487e-01,6.376057547581900353e-01,1.904686809253825288e+02
3.909715841008487569e+00,6.220099484563743175e+00,-9.724327272322137450e-01,-4.079857391944191614e-01,5.427529275535336595e-01,7.341436482365367722e-01,1.925012315754484291e+02
3.733632407936197772e+00,6.375833765654228102e+00,-1.311384471359486881e+00,-3.375665850742515794e-01,4.734067206563195018e-01,8.135938037366912123e-01,1.945337822255143294e+02
3.560367328518345698e+00,6.533607188837385671e+00,-1.632100525858401152e+00,-2.679068496632058816e-01,4.028033580697963356e-01,8.752001911741289497e-01,1.965663328755802297e+02
3.389566920773821934e+00,6.693388152518244816e+00,-1.930876578367290097e+00,-2.020653489318472718e-01,3.345395097386857364e-01,9.204634219700696951e-01,1.985988835256461300e+02
3.220936734838682813e+00,6.855179952609357308e+00,-2.202778395077634066e+00,-1.418450614721963043e-01,2.709496729877038934e-01,9.520852132261088396e-01,2.006314341757120303e+02
3.054234868479943188e+00,7.019020390012408406e+00,-2.441365215443643155e+00,-8.796585051316822834e-02,2.131899995543126702e-01,9.730426677353503084e-01,2.026639848257779306e+02
2.889266548274498803e+00,7.184981981896822134e+00,-2.638328693410614267e+00,-4.040676667290088453e-02,1.615557827341608521e-01,9.860360146932739545e-01,2.046965354758438309e+02
2.725879852984305796e+00,7.353172770578920492e+00,-2.783027144782838747e+00,1.270775055453924251e-03,1.158169168312461056e-01,9.932697654245107310e-01,2.067290861259097312e+02
2.567881520296340536e+00,7.523511543887716257e+00,-2.870978365712358649e+00,2.439917629609590979e-02,9.257974812550283372e-02,9.954062841036772635e-01,2.087616367759756315e+02
2.427044381477545532e+00,7.695457987377851694e+00,-2.912697741827952491e+00,4.757653952258460855e-02,6.916637087386599825e-02,9.964700126081038611e-01,2.107941874260415318e+02
2.344322489833265521e+00,7.818003882878637789e+00,-2.922513326466296135e+00,7.072734952972481448e-02,4.565224072265137989e-02,9.964504578480063435e-01,2.122370016506761772e+02
2.266633782095389016e+00,7.990259025337429932e+00,-2.921577531858609689e+00,9.377610461905790118e-02,2.211404426606971424e-02,9.953476836003958272e-01,2.142695523007420775e+02
2.252209496411526679e+00,8.160975205601301852e+00,-2.916852058925059499e+00,1.166485428797343071e-01,-1.371546479450316434e-03,9.931723094731795820e-01,2.163021029508079778e+02
2.265824759227957230e+00,8.233545510833190306e+00,-2.916069659783684376e+00,9.352066051142321479e-02,-2.452429777543453648e-02,9.953152489920612522e-01,2.171754776740522175e+02
2.342739953160028588e+00,8.392555089574106120e+00,-2.909501565066782369e+00,7.021654975839711210e-02,-4.772577645793184969e-02,9.963894250751128556e-01,2.192080283241181178e+02
2.484857940593762304e+00,8.525073796166836360e+00,-2.878534565351257068e+00,4.681103359510029038e-02,-7.090066372266151662e-02,9.963843751371477264e-01,2.212405789741840181e+02
2.559070201115913434e+00,8.570964875362038882e+00,-2.852938785425651602e+00,2.338016576005042674e-02,-9.397365522834150164e-02,9.953001155290083224e-01,2.220871072526721832e+02
2.766152680744672576e+00,8.646723374367393689e+00,-2.741815471937889104e+00,0.000000000000000000e+00,-1.168706797253571267e-01,9.931471412739065752e-01,2.241196579027380835e+02
3.014140395864858490e+00,8.661203077512617199e+00,-2.552956266081417791e+00,-7.019709539911378471e-02,-7.214736442160443741e-02,9.949206629699394178e-01,2.261522085528039838e+02
3.294286078969113518e+00,8.615743594718919596e+00,-2.292832700308596650e+00,-1.533239161768278347e-01,-1.812598081515103682e-02,9.880097294802768770e-01,2.281847592028698841e+02
3.598420559504471150e+00,8.517324830491125098e+00,-1.977681938906868053e+00,-2.500642383622477261e-01,4.625371896244025866e-02,9.671238132599427884e-01,2.302173098529357844e+02
3.919031489862387918e+00,8.372136557994794615e+00,-1.620656409396491693e+00,-3.588409174414844416e-01,1.207718979457066966e-01,9.255524537465964485e-01,2.322498605030016847e+02
4.249073396519824186e+00,8.185673598576007848e+00,-1.232561106637910964e+00,-4.742756679480255588e-01,2.027610858992580645e-01,8.567091296568560832e-01,2.342824111530675850e+02
4.581790062561887922e+00,7.962821277377995166e+00,-8.224593036166234494e-01,-5.866999773459370404e-01,2.864004539289131679e-01,7.574680960750688197e-01,2.363149618031334853e+02
4.910544851639098596e+00,7.707932450125379198e+00,-3.981806240777333583e-01,-6.844833004545864963e-01,3.637805453453847315e-01,6.317802831895047433e-01,2.383475124531993856e+02
5.228654789682780191e+00,7.424897294615305121e+00,3.324004125240381802e-02,-7.588410485334528000e-01,4.279497421598080775e-01,4.909371459219639133e-01,2.403800631032652859e+02
5.529224325015180241e+00,7.117206976902212823e+00,4.651681699089312838e-01,-8.073920322294304563e-01,4.757294208116473744e-01,3.489980293162772140e-01,2.424126137533311862e+02
5.804974692580739948e+00,6.788012236042511915e+00,8.909976869357714158e-01,-8.335474212600174626e-01,5.079887094489231592e-01,2.171316825873013390e-01,2.444451644033970865e+02
6.048064714206737413e+00,6.440177882309100710e+00,1.303780638868977215e+00,-8.432814950209005511e-01,5.278667138648392987e-01,1.011585515359474108e-01,2.464777150534629868e+02
6.249898672020499646e+00,6.076334171996721878e+00,1.695837702570225813e+00,-8.423650997977435440e-01,5.389019254012866744e-01,2.398633261586972844e-03,2.485102657035288871e+02
6.400916591921509635e+00,5.698926007628830170e+00,2.058327694628685478e+00,-8.351919860094663139e-01,5.440521584196161831e-01,-8.038404956532353707e-02,2.505428163535947874e+02
6.495443591657451776e+00,5.311583486871519710e+00,2.386145004085131305e+00,-8.366090112169496384e-01,5.314882275376571208e-01,-1.326861949845477007e-01,2.525753670036606877e+02
6.536654360221568538e+00,4.920458903155828345e+00,2.683026435391608899e+00,-8.355549512881846885e-01,5.170617877546812569e-01,-1.857283796885448590e-01,2.546079176537265880e+02
6.531899316910522835e+00,4.536452756571513589e+00,2.953848044505972492e+00,-8.318985437456123400e-01,5.008077380575605142e-01,-2.390322622902592287e-01,2.566217150371893467e+02
6.487090538064510525e+00,4.159791439825802684e+00,3.209631897309279225e+00,-8.255753171967011861e-01,4.828140177325321858e-01,-2.920890616174049992e-01,2.586542656872552470e+02
6.407140696464307617e+00,3.801617829025825568e+00,3.452847279987842910e+00,-8.165949773691645319e-01,4.632206997582133945e-01,-3.443823837697926882e-01,2.606868163373211473e+02
6.296446341293634674e+00,3.469708051238991953e+00,3.687881402584200163e+00,-8.050433008122888090e-01,4.422149315977685347e-01,-3.954127439641210162e-01,2.627193669873870476e+02
6.158757963465545160e+00,3.172228606120167882e+00,3.918662846706650882e+00,-7.910780856260533067e-01,4.200221004876484310e-01,-4.447211458252942062e-01,2.647519176374529479e+02
5.997275872859532342e+00,2.917872619745417673e+00,4.148881795578352794e+00,-7.749195974369997852e-01,3.968941793306735577e-01,-4.919091663320671604e-01,2.667844682875188482e+02
5.814734483074357030e+00,2.716003859264546794e+00,4.382196899845738791e+00,-7.568367543073092341e-01,3.730966063713681558e-01,-5.366535657607670595e-01,2.688170189375847485e+02
5.610852315166614979e+00,2.571443886682310609e+00,4.613624321377979953e+00,-7.247520342323262588e-01,3.621688710930246469e-01,-5.861469079397323423e-01,2.708495695876506488e+02
5.383094682436868617e+00,2.480207031508154358e+00,4.829747584856613152e+00,-6.873423766371493659e-01,3.489644615762201307e-01,-6.370119793501640704e-01,2.728821202377165491e+02
5.132605285455964506e+00,2.435805751359978455e+00,5.026086817906464610e+00,-6.441906967893407110e-01,3.332438953942691295e-01,-6.884525055169143926e-01,2.749146708877824494e+02
4.964832170719058801e+00,2.427687439832364014e+00,5.141188700373401588e+00,-5.950603060556433066e-01,3.148327989267880600e-01,-7.394481326481855410e-01,2.762018787044828514e+02
4.689124810451581915e+00,2.442965540570200211e+00,5.309533940600637436e+00,-5.399781931650994293e-01,2.936612430329037515e-01,-7.887880737222922045e-01,2.782344293545487517e+02
4.401715017918711226e+00,2.493795857776281988e+00,5.463427577484924136e+00,-4.793066336826625196e-01,2.698008310381140862e-01,-8.351482877183769027e-01,2.802669800046146520e+02
4.105582776247276300e+00,2.576871464808800916e+00,5.604206530102316286e+00,-4.137809351216753528e-01,2.434895460367196285e-01,-8.772104529134751028e-01,2.822995306546805523e+02
3.803461315317877567e+00,2.689381806463527980e+00,5.732472529220770774e+00,-3.444931329025042732e-01,2.151342553004596814e-01,-9.138061794381422409e-01,2.843320813047464526e+02
3.497908658092345302e+00,2.828969129479198763e+00,5.848125849358484452e+00,-2.728131462769010085e-01,1.852850572985829392e-01,-9.440563726602130279e-01,2.863646319548123529e+02
3.191374464090300123e+00,2.993691651753853211e+00,5.950359718323662506e+00,-2.002576825267322891e-01,1.545837188922694894e-01,-9.674713093639822903e-01,2.883971826048782532e+02
2.886263858359797041e+00,3.181992908039757317e+00,6.037615090845688925e+00,-1.283348918094544266e-01,1.236969689294808855e-01,-9.839863898560359257e-01,2.904297332549441535e+02
2.584999855433349314e+00,3.392676796181844701e+00,6.107493250983430322e+00,-5.840029602175303425e-02,9.325011129238616747e-02,-9.939284794030851522e-01,2.924622839050100538e+02
2.290085948691667372e+00,3.624887927069636806e+00,6.156621343935091417e+00,8.446812907349785307e-03,6.377501235084635789e-02,-9.979285541316860186e-01,2.944948345550759541e+02
2.004170435243018300e+00,3.878096954348220216e+00,6.180463299175850800e+00,7.141317532390724365e-02,3.568027533875781782e-02,-9.968084451598048235e-01,2.965273852051418544e+02
1.730114084803243024e+00,4.152090627441475057e+00,6.173065545580629809e+00,1.300110403615230004e-01,9.243935497244884156e-03,-9.914694544163411560e-01,2.985599358552077547e+02
1.471062838996370914e+00,4.446966374353537255e+00,6.126723263727875235e+00,1.840216656673749063e-01,-1.537641874719230389e-02,-9.828019089885388082e-01,3.005924865052736550e+02
1.419430479722144423e+00,4.510145382867572827e+00,6.111977269791429634e+00,2.296338416886149481e-01,-9.289500209490927918e-02,-9.688337408126922456e-01,3.010122249647274657e+02
1.180029273375504006e+00,4.816429213029288725e+00,6.012301313366298139e+00,2.740746837001820091e-01,-1.709501895764444501e-01,-9.463926777180933225e-01,3.030447756147933660e+02
9.608921468983547820e-01,5.107414075123632102e+00,5.860438186427656682e+00,3.161663753748513717e-01,-2.475401268719480963e-01,-9.158398924869720625e-01,3.050773262648592663e+02
7.628513479929500685e-01,5.353176518210247536e+00,5.649866875988088566e+00,3.549082712986311727e-01,-3.207734676568037013e-01,-8.781483367923934580e-01,3.071098769149251666e+02
6.006744369585058640e-01,5.521729398359193297e+00,5.403312843168430746e+00,3.681718018357753031e-01,-3.287463866979784544e-01,-8.696984175942956696e-01,3.089623381842224603e+02
4.419149560192808246e-01,5.644749294850337051e+00,5.080637831531910287e+00,3.835561556790976767e-01,-3.379517181376484047e-01,-8.594610588319189226e-01,3.109948888342883606e+02
3.022289784667396284e-01,5.709430612892473000e+00,4.716131032845656712e+00,4.015855490791815363e-01,-3.486798301295713776e-01,-8.468479337115877303e-01,3.130274394843542609e+02
1.806429618773715273e-01,5.723674051883277158e+00,4.319375403222514009e+00,4.229574302137968367e-01,-3.613096994730565781e-01,-8.310007901883310621e-01,3.150599901344201612e+02
7.670910218469746689e-02,5.694573891545717359e+00,3.898146080742125985e+00,4.486089916319653814e-01,-3.763372627241773904e-01,-8.106295314829239373e-01,3.170925407844860615e+02
-9.514417984224593158e-03,5.628528101144376627e+00,3.458846247291429865e+00,4.798041230738742113e-01,-3.944055880159110794e-01,-7.837296955093215889e-01,3.191250914345519618e+02
-7.746973700114478945e-02,5.531337341586612055e+00,3.006866080710635103e+00,5.182267724979996437e-01,-4.163173980683161357e-01,-7.470748532322135649e-01,3.211576420846178621e+02
-1.260924535336187813e-01,5.408294348314342415e+00,2.546884919557086846e+00,5.660037714544903231e-01,-4.429599201077289994e-01,-6.952886018607291607e-01,3.231901927346837624e+02
-1.537915387767206932e-01,5.264265028882156194e+00,2.083133579358657617e+00,6.253583605291314074e-01,-4.749132315362495360e-01,-6.191803803643276538e-01,3.252227433847496627e+02
-1.584156290036852210e-01,5.103762473920413711e+00,1.619631525381160175e+00,6.968914836993912454e-01,-5.110582526345902599e-01,-5.031517885900239628e-01,3.272552940348155630e+02
-1.388483904205874420e-01,4.931019329480540669e+00,1.162277880150785814e+00,7.738073237772918889e-01,-5.445826172749550498e-01,-3.234996114844426174e-01,3.292878446848814633e+02
-9.662789999426683873e-02,4.750072844091721258e+00,7.174553976286032198e-01,8.293547565919110465e-01,-5.556424525530664349e-01,-5.858457680299054837e-02,3.313203953349473636e+02
-3.434210902290488893e-02,4.564846827632147885e+00,2.869301835503301756e-01,8.145364598182837090e-01,-5.139394309349806234e-01,2.690661943777512000e-01,3.333529459850132639e+02
4.595124663753886313e-02,4.379214713968411665e+00,-1.303225783240296864e-01,7.106781137472693022e-01,-4.160557510196447040e-01,5.673043545435753066e-01,3.353854966350791642e+02
1.426747889972580785e-01,4.197057897194600429e+00,-5.345836718807418508e-01,5.671378472722715669e-01,-3.014993276973859659e-01,7.664547068088224391e-01,3.374180472851450645e+02
2.542271257214756552e-01,4.022362044135885384e+00,-9.256055633725825960e-01,4.351762290773492081e-01,-2.032304952974794132e-01,8.771083259365172191e-01,3.394505979352109648e+02
3.784792323964217831e-01,3.859320347090272829e+00,-1.302798499467323401e+00,3.306683392757060469e-01,-1.283007848635190351e-01,9.349852180671368584e-01,3.414831485852768651e+02
5.131928249260586661e-01,3.712367938464149031e+00,-1.664997472200846929e+00,2.511498233098632404e-01,-7.263080637436099274e-02,9.652194217983984803e-01,3.435156992353427654e+02
6.564363587984003434e-01,3.586215631756513922e+00,-2.010196936056493300e+00,1.905239271252163191e-01,-3.087550403099193624e-02,9.811968897441621928e-01,3.455482498854086657e+02
8.065421908039689392e-01,3.485923493614106583e+00,-2.335438380242533363e+00,1.435496320563340311e-01,1.094689530133900355e-03,9.896425136337482220e-01,3.475808005354745660e+02
9.620710149117086551e-01,3.416980351593943421e+00,-2.636644479273169583e+00,1.064321346804950746e-01,2.612885840710460483e-02,9.939766010654850215e-01,3.496133511855404663e+02
1.121782793032824577e+00,3.385390462866980421e+00,-2.908390524589288706e+00,7.653457393980091228e-02,4.615053495754824209e-02,9.959982867028362996e-01,3.516459018356063666e+02
1.284613573298245770e+00,3.397768689919232532e+00,-3.143600324039933724e+00,5.202671561879065876e-02,6.246891763383149304e-02,9.966899493782301889e-01,3.536784524856722669e+02
1.449657747289106791e+00,3.461445670482936166e+00,-3.333149521833908668e+00,3.162144771824953321e-02,7.599151572726070558e-02,9.966069303299447402e-01,3.557110031357381672e+02
1.524378165715698952e+00,3.505797203723932665e+00,-3.400356378071910157e+00,1.439725405009035369e-02,8.736085320715814007e-02,9.960726883128232512e-01,3.566252858507497763e+02
1.690507199491737333e+00,3.645452498678110498e+00,-3.498486003486583229e+00,-3.182420956568052239e-04,9.704156348154953371e-02,9.952802789561465691e-01,3.586578365008156766e+02
1.853502353337365127e+00,3.851569176570877939e+00,-3.521628267038195315e+00,-1.507345487285027645e-03,3.364510366776182065e-02,9.994327065434508439e-01,3.606903871508815769e+02
2.004767267483937410e+00,4.116834037356086107e+00,-3.471292418465651064e+00,-2.715595581988284723e-03,-3.124737572384911691e-02,9.995079924898088164e-01,3.627229378009474772e+02
2.132665299159124395e+00,4.429023655997281317e+00,-3.352375903355659048e+00,-3.927886003502747796e-03,-9.684906976417337332e-02,9.952913289069476033e-01,3.647554884510133775e+02
2.224855787114321970e+00,4.776765739102800445e+00,-3.165931644558656277e+00,-5.128360563568292070e-03,-1.623148023745837054e-01,9.867256988890225067e-01,3.667880391010792778e+02
2.268005654852454533e+00,5.149362786959634342e+00,-2.909227067368559183e+00,-6.301416969467461826e-03,-2.267937304153512523e-01,9.739224281165650421e-01,3.688205897511451781e+02
2.255402863756752474e+00,5.490610879616625972e+00,-2.617858740467311929e+00,-7.432704880445382446e-03,-2.894837709092763500e-01,9.571540635019556431e-01,3.706152114317721384e+02
2.168523716265660539e+00,5.881380232914214190e+00,-2.205375196609717037e+00,-8.509972854394485045e-03,-3.496798190746399082e-01,9.368306167573433596e-01,3.726477620818380387e+02
1.998395049612408547e+00,6.267983819780947208e+00,-1.705184095205890538e+00,6.138133904313775036e-02,-4.736908513659474629e-01,8.785495481471009560e-01,3.746803127319039390e+02
1.762855411855271281e+00,6.641223372511013245e+00,-1.133665734736738928e+00,1.434656088641261540e-01,-6.078977646595625783e-01,7.809468143191010681e-01,3.767128633819698393e+02
1.490709402999691680e+00,6.991683251821850575e+00,-5.154356018546999429e-01,2.308186253317602021e-01,-7.351503305682719480e-01,6.373984261553499175e-01,3.787454140320357396e+02
1.209763315157554420e+00,7.309355307314277184e+00,1.275094041014927237e-01,3.113304109311473833e-01,-8.334149757012638826e-01,4.566101767441286263e-01,3.807779646821016399e+02
9.474874565739058729e-01,7.583483059389465097e+00,7.745578600097323685e-01,3.740074559610402360e-01,-8.892741187467972930e-01,2.632678571581756333e-01,3.828105153321675402e+02
7.316684157366154517e-01,7.802388592340760987e+00,1.405328375492954640e+00,4.154122106127635106e-01,-9.057855727752436303e-01,8.357745764284135737e-02,3.848430659822334405e+02
5.910667668838062161e-01,7.953279389916748876e+00,1.998527044724510482e+00,4.390216570551887521e-01,-8.958922234213534397e-01,-6.809631891416674521e-02,3.868756166322993408e+02
5.424879439842694717e-01,8.029780635138481060e+00,2.540161175759414913e+00,4.185740625916070101e-01,-8.973117864763342499e-01,-1.400975088151363013e-01,3.889081672823652411e+02
5.776868922539002416e-01,8.039710918770145653e+00,3.032162314260784530e+00,3.939338188800998730e-01,-8.932170436496388310e-01,-2.167474550631215413e-01,3.909407179324311414e+02
6.769484135317190843e-01,7.997659244313643612e+00,3.483087091172999195e+00,3.648651151723343311e-01,-8.824668412085817648e-01,-2.968597680684048057e-01,3.929732685824970417e+02
8.222715344114999159e-01,7.917528068239778172e+00,3.899189462106134485e+00,3.313936478368295080e-01,-8.641382680537176286e-01,-3.787390973460763588e-01,3.950058192325629420e+02
9.969286427567570774e-01,7.812745228143340270e+00,4.284771294118619345e+00,2.938807362808599222e-01,-8.377244355438631107e-01,-4.602737043713617804e-01,3.970383698826288423e+02
1.006791996454020621e+00,7.806684836322800969e+00,4.304522222551617538e+00,2.530459041030145850e-01,-8.032992310609180509e-01,-5.391457277894592393e-01,3.971465698925257470e+02
1.194426448070226243e+00,7.690724665616943234e+00,4.661398460933814825e+00,2.099150926031303765e-01,-7.615853928819151797e-01,-6.131258787935134347e-01,3.991791205425916473e+02
1.379101659975751515e+00,7.577179465251504986e+00,4.990372848017943674e+00,1.656973098714037418e-01,-7.138868087318225308e-01,-6.803749156311350577e-01,4.012116711926575476e+02
1.545520714765363790e+00,7.479324344257087809e+00,5.290863002076635624e+00,1.216223407807646706e-01,-6.618972013094078788e-01,-7.396621533658327419e-01,4.032442218427234479e+02
1.678107162388120077e+00,7.410810145723529807e+00,5.560689760704385698e+00,7.878750742991898204e-02,-6.074461381577088703e-01,-7.904440004897664851e-01,4.052767724927893482e+02
1.760635335450913441e+00,7.385886935351363647e+00,5.795955020477863151e+00,3.805300674887565626e-02,-5.522598478073261763e-01,-8.328031154944119940e-01,4.073093231428552485e+02
1.775847753444567800e+00,7.419640136560615495e+00,5.990823215566132731e+00,8.697107866803648843e-07,-4.977934321499777326e-01,-8.672956237106175248e-01,4.093418737929211488e+02
1.727418955752793028e+00,7.522709765634681744e+00,6.137757992402328888e+00,9.007753593637715304e-07,-5.155737569328513459e-01,-8.568452025665624916e-01,4.113744244429870491e+02
1.653956060716042176e+00,7.691530220239797266e+00,6.230851325189800782e+00,9.365300038744570618e-07,-5.360385223225184737e-01,-8.441935219991999473e-01,4.134069750930529494e+02
1.598991702662152292e+00,7.909375599090433084e+00,6.268116300581245248e+00,9.780293826169699695e-07,-5.597913818853832435e-01,-8.286335793134963490e-01,4.154395257431188497e+02
1.591213606307791517e+00,8.155240683742961849e+00,6.249687402259128000e+00,1.026621010911970756e-06,-5.876036084245651603e-01,-8.091489352185889938e-01,4.174720763931847500e+02
1.629928534612375524e+00,8.364218676110027673e+00,6.192063364438865847e+00,1.084016736211499740e-06,-6.204550062974655278e-01,-7.842420450085783035e-01,4.191492596919456446e+02
1.735717031369971020e+00,8.605603196562649160e+00,6.073182265962482340e+00,1.152341577761776656e-06,-6.595618656089801135e-01,-7.516502813363897806e-01,4.211818103420115449e+02
1.903647597848314943e+00,8.817323065435520135e+00,5.905275868707699161e+00,1.234067945821547468e-06,-7.063393114871778788e-01,-7.078734188019045748e-01,4.232143609920774452e+02
2.123422164117112487e+00,8.983862367660343295e+00,5.691204569238086819e+00,1.331569057771099592e-06,-7.621456943665528838e-01,-6.474055456641933937e-01,4.252469116421433455e+02
2.382201273062457325e+00,9.092224313554046589e+00,5.433057524223269930e+00,1.445580464446042938e-06,-8.274020190001636355e-01,-5.616100951303877320e-01,4.272794622922092458e+02
2.665457320236208627e+00,9.133624566633034902e+00,5.132956114741280551e+00,1.570925997489917117e-06,-8.991456193488970294e-01,-4.376495803759218872e-01,4.293120129422751461e+02
2.958179818286656992e+00,9.107331688721647112e+00,4.794817182377282272e+00,1.687108258448723755e-06,-9.656444685334407696e-01,-2.598668127867087008e-01,4.313445635923410464e+02
3.245652928042127794e+00,9.019285291512463942e+00,4.423935923713050222e+00,1.746768628399660072e-06,-9.997920734338832105e-01,-2.039141720738202324e-02,4.333771142424069467e+02
3.513472820099397431e+00,8.876636464100245760e+00,4.024730060309107849e+00,1.688174169024689731e-06,-9.662545601778143034e-01,2.575890621372122768e-01,4.354096648924728470e+02
3.746842634044892595e+00,8.685773614838639745e+00,3.600029481996700031e+00,1.497230361399876585e-06,-8.569646964655988075e-01,5.153751148526501957e-01,4.374422155425387473e+02
3.930207325263606055e+00,8.452429916882536531e+00,3.151234886546512293e+00,1.237212868558428785e-06,-7.081393603160697214e-01,7.060726919868922646e-01,4.394747661926046476e+02
4.050334198613638748e+00,8.181412761732248740e+00,2.681057498085615887e+00,9.818288805907218476e-07,-5.619660877367617102e-01,8.271602723976014815e-01,4.415073168426705479e+02
4.103147429179303529e+00,7.877559502499965838e+00,2.196022661667373033e+00,7.653074077340774832e-07,-4.380364219695031536e-01,8.989572253603446139e-01,4.435398674927364482e+02
4.093875485823433635e+00,7.547378454379932045e+00,1.703864857305314118e+00,5.918085454913592263e-07,-3.387314628582390186e-01,9.408830937313983345e-01,4.455724181428023485e+02
4.030033084704407464e+00,7.198183339605391140e+00,1.211609673856636205e+00,4.546566651827939404e-07,-2.602303033116052933e-01,9.655465753852287003e-01,4.476049687928682488e+02
3.917904524616859785e+00,6.836926718335670117e+00,7.262772409631056414e-01,3.457025107200389697e-07,-1.978685810843442971e-01,9.802285573372918615e-01,4.496375194429341491e+02
3.762691596826422735e+00,6.470321148707856906e+00,2.552757664771382329e-01,2.580992485157571309e-07,-1.477273971090893312e-01,9.890281169629643321e-01,4.516700700930000494e+02
3.568636814405894420e+00,6.104955401942708804e+00,-1.931831712556045799e-01,1.866583826472296927e-07,-1.068370294591702019e-01,9.942765456030357996e-01,4.537026207430659497e+02
3.339124884766308199e+00,5.747407788692559194e+00,-6.096242954065438369e-01,1.275690606430778972e-07,-7.301627334766506994e-02,9.973307494639893633e-01,4.557351713931318500e+02
3.076764848950295672e+00,5.404358585050142771e+00,-9.827774617366487053e-01,7.804417307402534540e-08,-4.466988034276726804e-02,9.990018026961496878e-01,4.577677220431977503e+02
2.842062133224707576e+00,5.140398774877987798e+00,-1.242631318861796785e+00,3.603101698719737060e-08,-2.062295177270569851e-02,9.997873243146161437e-01,4.594169870020060102e+02
2.527651309414927105e+00,4.839716631306049344e+00,-1.493499429604883577e+00,-0.000000000000000000e+00,0.000000000000000000e+00,1.000000000000000000e+00,4.614495376520719105e+02
2.187246242303387156e+00,4.571788969087980270e+00,-1.671853051060477879e+00,-1.801597591111174539e-07,1.461595746053214662e-12,9.999999999999837907e-01,4.634820883021378108e+02
2.079053020307759514e+00,4.495593481045960793e+00,-1.715795793243419576e+00,-3.603195182222173848e-07,2.923191492106287151e-12,9.999999999999351630e-01,4.641041684746682563e+02
1.718523423985908849e+00,4.264144211451811550e+00,-1.862003860556409318e+00,-5.404792773332821109e-07,4.384787238159074692e-12,9.999999999998538946e-01,4.661367191247341566e+02
1.366709417546349448e+00,4.052803837665877040e+00,-2.019553240389539095e+00,1.737135859060564558e-01,-4.274177477652833616e-03,9.847869421750822250e-01,4.681692697748000569e+02
1.080697257942947687e+00,3.830087886952401544e+00,-2.156728409524434564e+00,3.421422461676195126e-01,-8.418307444136425427e-03,9.396104594389912412e-01,4.702018204248659572e+02
9.695222704732856522e-01,3.699245633774788100e+00,-2.203485307038564933e+00,3.414829193922846451e-01,6.261798229121355586e-02,9.377997675714682124e-01,4.712793741383860038e+02
8.513017425531560489e-01,3.424773081084186988e+00,-2.234127837411917117e+00,3.390825981808636702e-01,1.336971088104992045e-01,9.312078579493562325e-01,4.733119247884519041e+02
8.635125958500021737e-01,3.116761415546284830e+00,-2.202067489700325176e+00,3.349777391928526749e-01,2.037395048402665110e-01,9.199348500914007465e-01,4.753444754385178044e+02
9.120872204546720541e-01,2.952641676689705452e+00,-2.164656776807488470e+00,2.892831326204104991e-01,1.958444630664859520e-01,9.369953124042412762e-01,4.763723671051045017e+02
1.078860485548890358e+00,2.624069103295287864e+00,-2.058916124264820180e+00,2.422917223592191416e-01,1.873624768962871279e-01,9.519401365251343172e-01,4.784049177551704020e+02
1.336430045049276094e+00,2.301459791355703999e+00,-1.922800680838072207e+00,1.943279680509865381e-01,1.783412793137254260e-01,9.645885282989418164e-01,4.804374684052363023e+02
1.664126661747329594e+00,2.002812576037533265e+00,-1.768264958825385591e+00,1.457459758169661335e-01,1.688420026263175999e-01,9.748079239944118513e-01,4.824700190553022026e+02
2.043189537844496861e+00,1.746669336372961956e+00,-1.606230859143997991e+00,9.691668850451053141e-02,1.589371775957234556e-01,9.825202944810987882e-01,4.845025697053681029e+02
2.456322227999309771e+00,1.552400085227973570e+00,-1.447199935669391868e+00,4.821385507626570199e-02,1.487079900206925709e-01,9.877050966167434387e-01,4.865351203554340032e+02
2.887287351011994740e+00,1.440504778533954422e+00,-1.301842095586251746e+00,-0.000000000000000000e+00,1.382410334876689184e-01,9.903986150334931349e-01,4.885676710054999035e+02
3.321234393110755967e+00,1.424194669799218271e+00,-1.177484032992775820e+00,0.000000000000000000e+00,1.153547931095267043e-01,9.933243537267463230e-01,4.906002216555658038e+02
3.517249456505703531e+00,1.444181537401483695e+00,-1.128388806030166558e+00,0.000000000000000000e+00,9.235795934607266000e-02,9.957258695772793766e-01,4.915266910381502612e+02
3.932759099445136020e+00,1.540584862886979822e+00,-1.035973988758018383e+00,0.000000000000000000e+00,6.928703075216774421e-02,9.975967659177470415e-01,4.935592416882161615e+02
4.316497135035317179e+00,1.715700142734948752e+00,-9.629887926858395897e-01,0.000000000000000000e+00,4.617898014703751552e-02,9.989331818458027090e-01,4.955917923382820618e+02
4.654502637016608269e+00,1.961530959473634761e+00,-9.084878982556714444e-01,0.000000000000000000e+00,2.307095909476616566e-02,9.997338299999892763e-01,4.976243429883479621e+02
4.931624321079737250e+00,2.271335560172577761e+00,-8.725621864074534217e-01,-0.000000000000000000e+00,0.000000000000000000e+00,1.000000000000000000e+00,4.996568936384138624e+02
5.138548920300094025e+00,2.638298775914187377e+00,-8.548598384254234572e-01,-4.310434775828280579e-02,3.025406080264083156e-03,9.990659948784077482e-01,5.016894442884797627e+02
5.273743956583048842e+00,3.031335676595336093e+00,-8.530114457490374225e-01,-8.680675788415366523e-02,6.092788935897198305e-03,9.962065371742069297e-01,5.036187206685027036e+02
5.360752970553058105e+00,3.483773569702727446e+00,-8.639963735358429098e-01,-1.308624707909067653e-01,9.184969391703951686e-03,9.913579828073069145e-01,5.056512713185686039e+02
5.397948739074899471e+00,3.968136193868614381e+00,-8.859859016490282402e-01,-1.750114781619966364e-01,1.228369799530410617e-02,9.844897629102666858e-01,5.076838219686345042e+02
5.391996072698499454e+00,4.476624617725820876e+00,-9.174228649119436918e-01,-2.189857595452356365e-01,1.537016293889045815e-02,9.756069880887633383e-01,5.097163726187004045e+02
5.348428594067929254e+00,5.001779710403535084e+00,-9.572797063320555022e-01,-2.625172146399219475e-01,1.842554681025178331e-02,9.647513727600703914e-01,5.117489232687663048e+02
5.271785520149948390e+00,5.536370518456417145e+00,-1.005000873891644053e+00,-3.053457591597721899e-01,2.143159482484718881e-02,9.520003435432184968e-01,5.137814739188322619e+02
5.165723158108606050e+00,6.073285326876412427e+00,-1.060471677184756212e+00,-3.472270213718501863e-01,2.437115503014474632e-02,9.374643686198047554e-01,5.158140245688981622e+02
5.033103825291834532e+00,6.605423840999794294e+00,-1.124011858054260404e+00,-3.879391148903719722e-01,2.722865367417764623e-02,9.212827164107478817e-01,5.178465752189640625e+02
4.876064340925949203e+00,7.125588924803306412e+00,-1.196393514807462699e+00,-4.272880650177586226e-01,2.999047606933331889e-02,9.036179949727176641e-01,5.198791258690299628e+02
4.697440156202535633e+00,7.628065885154809322e+00,-1.277362623936587394e+00,-3.946330269242614985e-01,2.535910113663562490e-02,9.184888077979703747e-01,5.219116765190958631e+02
4.502231959070124745e+00,8.110210466134438079e+00,-1.364103039093129022e+00,-3.609989498967040022e-01,2.062977472468313991e-02,9.323380130447785907e-01,5.239442271691617634e+02
4.296388049301161693e+00,8.570698798539709173e+00,-1.452600383297588671e+00,-3.264946267850957762e-01,1.581930353742584672e-02,9.450666687149917866e-01,5.259767778192276637e+02
4.085582151622874747e+00,9.007811981831673975e+00,-1.538938770245174004e+00,-2.912433972956686157e-01,1.094607930328037569e-02,9.565863614329672693e-01,5.280093284692935640e+02
4.053589247914288762e+00,9.071966213595764827e+00,-1.551631001455881620e+00,-2.553811886569453127e-01,6.029757827212071583e-03,9.668216435830917499e-01,5.283164099373298086e+02
3.844391860152942986e+00,9.482317103712134099e+00,-1.630610035664706858e+00,-2.190540294005718092e-01,1.090879756922372764e-03,9.757121205482329751e-01,5.303489605873957089e+02
3.642787993599766683e+00,9.863291653005720860e+00,-1.697709967749645221e+00,-1.824151352247204705e-01,-3.849550752270849540e-03,9.832140659083110634e-01,5.323815112374616092e+02
3.454452903742531777e+00,1.021174532453882300e+01,-1.747815409562881728e+00,-1.456216993946635729e-01,-8.770509736622541727e-03,9.893014701416197321e-01,5.344140618875275095e+02
3.285340781658367071e+00,1.052396359372960077e+01,-1.774858288962187780e+00,-1.088315430930336669e-01,-1.365139782061068618e-02,9.939664655135667104e-01,5.364466125375934098e+02
3.141821122000339361e+00,1.079559937496559563e+01,-1.771477683367485456e+00,-7.219979070752431671e-02,-1.847246359675336000e-02,9.972191124875496859e-01,5.384791631876593101e+02
3.030824289237715519e+00,1.102159913975976302e+01,-1.728607178183908077e+00,-3.587573016707642365e-02,-2.321518611362288070e-02,9.990865763879970274e-01,5.405117138377252104e+02
2.959999648847837950e+00,1.119611645015519841e+01,-1.634966618063460109e+00,0.000000000000000000e+00,-2.786260007479053613e-02,9.996117623943168162e-01,5.425442644877911107e+02
2.933599704532356522e+00,1.131613742206677564e+01,-1.484102411480965333e+00,-2.120540211603949218e-02,-2.532686919838124037e-02,9.994542914099199260e-01,5.445768151378570110e+02
2.948340909560342116e+00,1.138519617655342842e+01,-1.281698404776774325e+00,-4.572604612738001562e-02,-2.237884668313011235e-02,9.987033172702940442e-01,5.466093657879229113e+02
2.997693521566378472e+00,1.140976580800474416e+01,-1.038221857426906425e+00,-7.434774566835929133e-02,-1.891620186845857296e-02,9.970529524658681142e-01,5.486419164379888116e+02
3.076035372257582612e+00,1.139565156577870297e+01,-7.618375678224414971e-01,-1.080996649678249572e-01,-1.480288697865205470e-02,9.940298471227818622e-01,5.506744670880547119e+02
3.108464177380548144e+00,1.138366428075499037e+01,-6.594374055625413789e-01,-1.483392718087267748e-01,-9.856047782239297367e-03,9.888874146035891988e-01,5.513799560472077701e+02
3.213767253196159857e+00,1.133211254104756804e+01,-3.512085202606963219e-01,-1.968596706355165704e-01,-3.828148328785033454e-03,9.804242017400675024e-01,5.534125066972736704e+02
3.337051886793215072e+00,1.125362904383244000e+01,-2.650656073135353868e-02,-2.560044321536326661e-01,3.615517854583682415e-03,9.666688464765682554e-01,5.554450573473395707e+02
3.474678474147150364e+00,1.115248455300235264e+01,3.110570399402574626e-01,-3.287244073110781040e-01,1.291873245766376847e-02,9.443375299063718753e-01,5.574776079974054710e+02
3.623402073874683271e+00,1.103261243562035432e+01,6.585918517129826233e-01,-4.183678035403463613e-01,2.463411170188967853e-02,9.079435783689893125e-01,5.595101586474713713e+02
3.780290521341370447e+00,1.089766917132928548e+01,1.013766414679341255e+00,-5.276472951978672388e-01,3.933451270275216405e-02,8.485523719728864656e-01,5.615427092975372716e+02
3.942650781184243503e+00,1.075109102371365921e+01,1.374677541125416846e+00,-6.556388790928058263e-01,5.727937651313089878e-02,7.528988864702856887e-01,5.635752599476031719e+02
4.107961722198750998e+00,1.059614772761331380e+01,1.739743625839689445e+00,-7.917922866300425300e-01,7.763146879225761576e-02,6.058368838939450773e-01,5.656078105976690722e+02
4.273811663353180634e+00,1.043599401216446765e+01,2.107615983823571959e+00,-9.106495974167718721e-01,9.751512643593895913e-02,4.015072986146755452e-01,5.676403612477349725e+02
4.437839164316434548e+00,1.027371975716620334e+01,2.477103245156745182e+00,-9.806995639027781264e-01,1.126134560033927173e-01,1.598329593290215567e-01,5.696729118978008728e+02
4.597675621515648459e+00,1.011239957018862512e+01,2.847104568715605577e+00,-9.897403514481509790e-01,1.202965158160523157e-01,-7.708946100349026165e-02,5.717054625478667731e+02
4.750888283729468142e+00,9.955142573772061354e+00,3.216547930795314425e+00,-9.536565424453740114e-01,1.215130814361312511e-01,-2.752703581772487085e-01,5.737380131979326734e+02
4.894922320840375818e+00,9.805143206420812163e+00,3.584330029178567578e+00,-8.970003925873977213e-01,1.189436121773375099e-01,-4.257261007035643696e-01,5.757705638479985737e+02
5.027040566253667464e+00,9.665733868364503323e+00,3.949254433769538775e+00,-8.367355984711952743e-01,1.148076707356989051e-01,-5.354369589328832335e-01,5.778031144980644740e+02
5.144259507562403577e+00,9.540440283942370314e+00,4.309964516625663045e+00,-7.807204596921789586e-01,1.103404105591775791e-01,-6.150614258882318719e-01,5.798356651481303743e+02
5.243280020317551582e+00,9.433040507887806569e+00,4.664867401553530968e+00,-7.314412279958705243e-01,1.060895332401275148e-01,-6.736013219440597499e-01,5.818682157981962746e+02
5.320411224516823800e+00,9.347628573918383310e+00,5.012044670003015234e+00,-6.890088413380048848e-01,1.022479948852659110e-01,-7.175041213122070882e-01,5.839007664482621749e+02
5.371485690066272412e+00,9.288683872310123490e+00,5.349144817575782973e+00,-6.526927907913131488e-01,9.885057870134165980e-02,-7.511462467052983927e-01,5.859333170983280752e+02
5.391764022513596544e+00,9.261147450293064409e+00,5.673251432431522190e+00,-6.215730690015773829e-01,9.586940817099753875e-02,-7.774676690827103664e-01,5.879658677483939755e+02
5.375826619342461754e+00,9.270506557221443344e+00,5.980719705885632287e+00,-5.947819612881856122e-01,9.325640267428976504e-02,-7.984595555733740024e-01,5.899984183984598758e+02
5.317450094503325175e+00,9.322888908001889519e+00,6.266972110244842575e+00,-5.715755729565807908e-01,9.096095541478126101e-02,-8.154921636590914957e-01,5.920309690485257761e+02
5.209465517882882146e+00,9.425168316083105680e+00,6.526241789901773949e+00,-5.513404517378226455e-01,8.893661974381808499e-02,-8.295263612122747432e-01,5.940635196985916764e+02
5.043595198956317027e+00,9.585083554777561687e+00,6.751249280603171421e+00,-5.335785543036569711e-01,8.714309002340615840e-02,-8.412490762243913789e-01,5.960960703486575767e+02
5.023030989255638623e+00,9.605003751641547183e+00,6.772596496090897311e+00,-4.821619097691167144e-01,7.331655779157655872e-02,-8.730089204134128256e-01,5.963077251538558130e+02
4.797696183618041843e+00,9.821904203597844329e+00,6.957142062632324375e+00,-4.272872924143852891e-01,5.878640483229894548e-02,-9.022027091225545137e-01,5.983402758039217133e+02
4.527106488976877507e+00,1.007639987289047312e+01,7.105761716148425222e+00,-3.694298979002734185e-01,4.369515096801845216e-02,-9.282307279546803125e-01,6.003728264539876136e+02
4.229586378540712843e+00,1.034323322949715340e+01,7.224130181024687403e+00,-3.092109784818461993e-01,2.821632822634248527e-02,-9.505747785459713883e-01,6.024053771040535139e+02
3.922510224596112760e+00,1.059720302599385455e+01,7.316226348101418253e+00,-2.473687829165291396e-01,1.254550884342215712e-02,-9.688401805490185481e-01,6.044379277541194142e+02
3.622719423736039168e+00,1.081276445504755657e+01,7.384556324936569993e+00,-1.847149492411510330e-01,-3.111638009297042207e-03,-9.827872125927047398e-01,6.064704784041853145e+02
3.346921855157074965e+00,1.096362052027753720e+01,7.430293924191444965e+00,-1.220820838620287757e-01,-1.855262968969282819e-02,-9.923465950621797038e-01,6.085030290542512148e+02
3.112083158269316474e+00,1.102229814435915856e+01,7.453346465692560763e+00,-6.027023893343292499e-02,-3.359083952550499796e-02,-9.976167369280041219e-01,6.105355797043171151e+02
2.960686435821111573e+00,1.098784093921950600e+01,7.453843658363213720e+00,-0.000000000000000000e+00,-4.806577624515451230e-02,-9.988441726084960059e-01,6.121950476275320625e+02
2.832348802419931921e+00,1.083205603777750703e+01,7.432504278654650243e+00,0.000000000000000000e+00,-2.679601718565303992e-02,-9.996409222630824321e-01,6.142275982775979628e+02
2.760141117297211899e+00,1.055816528603503990e+01,7.392634739697429680e+00,0.000000000000000000e+00,-5.465599488268811472e-03,-9.999850634995673948e-01,6.162601489276638631e+02
2.727354391900995711e+00,1.019258917413319843e+01,7.340861803104332672e+00,0.000000000000000000e+00,1.589652019307583042e-02,-9.998736423397464046e-01,6.182926995777297634e+02
2.718537013642758016e+00,9.760400237758531716e+00,7.283144944810402421e+00,0.000000000000000000e+00,3.726113601882902193e-02,-9.993055627497459126e-01,6.203252502277956637e+02
2.719108546944924765e+00,9.285718255278581523e+00,7.225110433787451214e+00,0.000000000000000000e+00,5.859899191586614292e-02,-9.982816026284587752e-01,6.223578008778615640e+02
2.714999172672533323e+00,8.792093081722534009e+00,7.172366731720078548e+00,0.000000000000000000e+00,7.988098155482982465e-02,-9.968044084903702196e-01,6.243903515279274643e+02
2.692305962410585618e+00,8.302881114141385410e+00,7.130818894444789002e+00,0.000000000000000000e+00,1.010783461714689635e-01,-9.948784689273564297e-01,6.264229021779933646e+02
2.642146602977430092e+00,7.834661724766764479e+00,7.104176584902703873e+00,3.416182027545774935e-03,9.516839250384566407e-02,-9.954553263550246500e-01,6.284554528280592649e+02
2.641447659852018237e+00,7.829755912724106537e+00,7.103973295431996959e+00,6.834617306762809895e-03,8.924979204016304790e-02,-9.959858245111010699e-01,6.284773553857216939e+02
2.564840261171564606e+00,7.385611364003984214e+00,7.091128115686537114e+00,1.025482565632716142e-02,8.332336675800143533e-02,-9.964697963826449900e-01,6.305099060357875942e+02
2.467420077912781284e+00,6.962018409847753553e+00,7.088911009488075621e+00,1.367632525963435527e-02,7.738994346299746252e-02,-9.969070943564333209e-01,6.325424566858534945e+02
2.354213727447885596e+00,6.555730653258521556e+00,7.094767411518085432e+00,1.709863300180096413e-02,7.145035321626162783e-02,-9.972975903784894181e-01,6.345750073359193948e+02
2.229830025777490565e+00,6.163741895046365826e+00,7.106595344322247598e+00,2.052126480907199776e-02,6.550543075529359494e-02,-9.976411760909827953e-01,6.366075579859852951e+02
2.098573682481724045e+00,5.783240610021540995e+00,7.122627584789297472e+00,2.394373599008063624e-02,5.955601390933191325e-02,-9.979377629462014010e-01,6.386401086360511954e+02
1.964551135496537926e+00,5.411566682448863297e+00,7.141332596436225977e+00,2.736556157840064687e-02,5.360294301008975554e-02,-9.981872822973432147e-01,6.406726592861170957e+02
1.831771100124619744e+00,5.046169756581245558e+00,7.161328673921734556e+00,3.078625667582784997e-02,4.764706029884255289e-02,-9.983896854659349840e-01,6.427052099361829960e+02
1.704242271624919258e+00,4.684568564106832866e+00,7.181306486852388815e+00,3.420533679582418024e-02,4.168920933084206693e-02,-9.985449437857333299e-01,6.447377605862488963e+02
1.586070544480157940e+00,4.324310586931856548e+00,7.199955680809630998e+00,3.762231820655699555e-02,3.573023437803946045e-02,-9.986530486230213999e-01,6.467703112363147966e+02
1.481558092063186560e+00,3.962931400357870171e+00,7.215891420970398151e+00,4.103671827296707236e-02,2.977097983110375823e-02,-9.987140113732665414e-01,6.488028618863806969e+02
1.395306687320458039e+00,3.597913017734074792e+00,7.227576760476075002e+00,4.444805579730110728e-02,2.381228960172344575e-02,-9.987278634341608674e-01,6.508354125364465972e+02
1.332327739022620694e+00,3.226640522234154762e+00,7.233236481643868565e+00,4.785585135754865521e-02,1.785500652617759421e-02,-9.986946561551205415e-01,6.528679631865124975e+02
1.298161671220841473e+00,2.846356223490111859e+00,7.230757580095500181e+00,5.125962764322939541e-02,1.189997177115796091e-02,-9.986144607633734571e-01,6.549005138365783978e+02
1.299009489326667266e+00,2.454110515154633632e+00,7.217570813102501148e+00,5.465890978798347566e-02,5.948024242816186101e-03,-9.984873682668178319e-01,6.569330644866442981e+02
1.341879659732388985e+00,2.046708532547559578e+00,7.190506671937935579e+00,5.805322569842741309e-02,0.000000000000000000e+00,-9.983134893338903026e-01,6.589656151367101984e+02
1.348535275165358538e+00,2.004772285941484711e+00,7.186955223043452357e+00,4.740620083334229351e-02,8.718542208773577551e-02,-9.950634925962926758e-01,6.591705336057588056e+02
1.436989602783284692e+00,1.585080986090405375e+00,7.135288490539835493e+00,3.611932581832576900e-02,1.758021264401439243e-01,-9.837626780080412914e-01,6.612030842558247059e+02
1.565728659272154655e+00,1.167058677445771631e+00,7.038426256009763904e+00,2.444332817433485933e-02,2.637031904760491763e-01,-9.642941206087042305e-01,6.632356349058906062e+02
1.727254070625092064e+00,7.686656460090219856e-01,6.868723934822619448e+00,1.266338605498175743e-02,3.487416915352185010e-01,-9.371333262875548575e-01,6.652681855559565065e+02
1.915074269955823860e+00,4.082340124708440654e-01,6.594453643192429659e+00,1.065309812990342326e-03,4.290253040927120565e-01,-9.032918429628147283e-01,6.673007362060224068e+02
2.123469498792340815e+00,9.868917435064590571e-02,6.197308018399205309e+00,1.105091227879261787e-03,4.971077861303905832e-01,-8.676880935808211071e-01,6.693332868560883071e+02
2.144977580000821060e+00,7.078881489719031361e-02,6.151693280337322989e+00,1.146198031294791376e-03,5.793229225080095413e-01,-8.150973179239714428e-01,6.695343730415846721e+02
2.368292875267266062e+00,-1.856413283405682346e-01,5.643828264293200725e+00,1.182919735141987807e-03,6.766661497867414443e-01,-7.362890209922239304e-01,6.715669236916505724e+02
2.600950753810321370e+00,-3.930156274990479481e-01,5.058082660965813382e+00,1.202808037466774563e-03,7.857484247713222292e-01,-6.185450397684963963e-01,6.735994743417164727e+02
2.838157923829003337e+00,-5.540124148921836689e-01,4.416535641726309969e+00,1.184072442379497606e-03,8.934296894206030792e-01,-4.492015004808597722e-01,6.756320249917823730e+02
