3.243546536203661290e+00,1.202961487483338843e+01,5.031675408850526665e-01,0.000000000000000000e+00,-6.568492148783279527e-02,9.978404136379411815e-01,2.392190326787398931e+02
3.190679124621791374e+00,1.211983966807602542e+01,8.269678126468464896e-01,0.000000000000000000e+00,-7.823132946597848025e-02,9.969352331470613393e-01,2.411766190193201851e+02
3.144556052565337101e+00,1.219542236473056995e+01,1.162302086144114011e+00,0.000000000000000000e+00,-9.572739099041135957e-02,9.954075881839402618e-01,2.431342053599004771e+02
3.104434430516411769e+00,1.225663003211358593e+01,1.507205507667955580e+00,0.000000000000000000e+00,-1.217895688061634979e-01,9.925559434762398769e-01,2.450917917004807691e+02
3.069616497344114237e+00,1.230363366074590914e+01,1.859781428460302033e+00,0.000000000000000000e+00,-1.646176889616842720e-01,9.863574486366056826e-01,2.470493780410610611e+02
3.039443726716902106e+00,1.233650899802102430e+01,2.218187886163134337e+00,0.000000000000000000e+00,-2.472377618365815544e-01,9.689548436960506717e-01,2.490069643816413532e+02
3.013291220169838081e+00,1.235523675430255963e+01,2.580624476045678684e+00,0.000000000000000000e+00,-4.606602530255943795e-01,8.875765495338390210e-01,2.509645507222216452e+02
2.990568682527628752e+00,1.235975558517187700e+01,2.945318237719172227e+00,0.000000000000000000e+00,-9.999489041636315800e-01,1.010886056647248427e-02,2.529221370628019372e+02
2.970722297105821585e+00,1.235001474121724385e+01,3.310509737480405779e+00,0.000000000000000000e+00,-4.785099839973084856e-01,-8.780821118864086117e-01,2.548797234033822292e+02
2.953224500837543953e+00,1.232591998284998880e+01,3.674441808511334173e+00,0.000000000000000000e+00,-2.667763180900826203e-01,-9.637584739478552986e-01,2.568373097439625212e+02
2.937563284244665063e+00,1.228727929965763011e+01,4.035348307220009367e+00,0.000000000000000000e+00,-1.845249556516866951e-01,-9.828278286361976646e-01,2.587948960845428132e+02
2.923237605958181273e+00,1.223380141645893815e+01,4.391441524872233160e+00,0.000000000000000000e+00,-1.418309022889826521e-01,-9.898909006329399407e-01,2.607524824251231053e+02
2.909752869212275606e+00,1.216509363211486061e+01,4.740899445519393574e+00,0.000000000000000000e+00,-1.158317021223492366e-01,-9.932688542300313062e-01,2.627100687657033973e+02
2.896616421591464707e+00,1.208065897518789633e+01,5.081852759400193875e+00,0.000000000000000000e+00,-9.837010049705698089e-02,-9.951498999287488045e-01,2.646676551062836893e+02
2.883333039314868618e+00,1.197989265608966925e+01,5.412371539251081387e+00,0.000000000000000000e+00,-8.584455658279759038e-02,-9.963085426237712205e-01,2.666252414468639813e+02
2.869400357023241366e+00,1.186207779068833013e+01,5.730451484560115105e+00,0.000000000000000000e+00,-7.642539745492869796e-02,-9.970753023838551110e-01,2.685828277874442733e+02
2.854304203390274353e+00,1.172638036550383411e+01,6.033999635719403010e+00,0.000000000000000000e+00,-6.908633642100320271e-02,-9.976106846460316424e-01,2.705404141280245653e+02
2.837513801904845590e+00,1.157184340957221202e+01,6.320819456251848045e+00,0.000000000000000000e+00,-6.320773412887578657e-02,-9.980003919569837567e-01,2.724980004686048574e+02
2.818476794856231038e+00,1.139738033277152773e+01,6.588595176784563634e+00,0.000000000000000000e+00,-5.839356579226615690e-02,-9.982936399046447029e-01,2.744555868091851494e+02
2.796614046888243887e+00,1.120176738484028078e+01,6.834875289179386471e+00,0.000000000000000000e+00,-5.437899022428509949e-02,-9.985203680557483974e-01,2.764131731497654414e+02
2.771314182456381392e+00,1.098363518344746481e+01,7.057055073173561510e+00,0.000000000000000000e+00,-5.098022870019350977e-02,-9.986996627022940443e-01,2.783707594903457334e+02
2.743109702761326041e+00,1.075100443748002199e+01,7.244701618860254655e+00,-0.000000000000000000e+00,-4.806577624515451230e-02,-9.988441726084960059e-01,2.802514419347373291e+02
2.709124863088290702e+00,1.048436380895001108e+01,7.411526402300895988e+00,0.000000000000000000e+00,-3.058224763150043171e-02,-9.995322536715889328e-01,2.822090282753176211e+02
2.670093976046650663e+00,1.019481364027013726e+01,7.550603863472336919e+00,0.000000000000000000e+00,-1.307862994191873358e-02,-9.999144710618215193e-01,2.841666146158979132e+02
2.625700483532301899e+00,9.884885826638130979e+00,7.663769707888463678e+00,0.000000000000000000e+00,4.428997062264200361e-03,-9.999901919444122989e-01,2.861242009564782052e+02
2.575612006696069489e+00,9.556969653328508230e+00,7.752674953402124203e+00,0.000000000000000000e+00,2.192454256709130619e-02,-9.997596283273413320e-01,2.880817872970584972e+02
2.545903629379489441e+00,9.372783730083238396e+00,7.788133057084834832e+00,0.000000000000000000e+00,2.046321243654322317e-02,-9.997906065455791635e-01,2.891308383709863961e+02
2.485944406571500842e+00,9.015468571585467217e+00,7.833350255033751708e+00,0.000000000000000000e+00,1.900179799632906175e-02,-9.998194495372185742e-01,2.910884247115666881e+02
2.422605806597479816e+00,8.646873572910891426e+00,7.860021433374621225e+00,0.000000000000000000e+00,1.754030860895186908e-02,-9.998461569531097437e-01,2.930460110521469801e+02
2.357574559645922996e+00,8.269358233878636000e+00,7.870797101232099635e+00,0.000000000000000000e+00,1.607875363901610857e-02,-9.998707284851456878e-01,2.950035973927272721e+02
2.292546648464202086e+00,7.885202739240642522e+00,7.868214470791972559e+00,0.000000000000000000e+00,1.461714245292770366e-02,-9.998931638662756916e-01,2.969611837333075641e+02
2.229238836339202834e+00,7.496624111877856933e+00,7.854715541516559263e+00,0.000000000000000000e+00,1.315548441859394277e-02,-9.999134628705186323e-01,2.989187700738878561e+02
2.169400490538562210e+00,7.105791807316887088e+00,7.832664505722900294e+00,0.000000000000000000e+00,1.169378890512332535e-02,-9.999316253129723053e-01,3.008763564144681482e+02
2.114825781506040503e+00,6.714842857898920769e+00,7.804364599583540674e+00,0.000000000000000000e+00,1.023206528252526559e-02,-9.999476510498207515e-01,3.028339427550484402e+02
2.067366341783201555e+00,6.325896670959157753e+00,7.772074519656976932e+00,0.000000000000000000e+00,8.770322921409799688e-03,-9.999615399783404746e-01,3.047915290956287322e+02
2.028944472878206451e+00,5.941069582110756642e+00,7.738024521958339008e+00,0.000000000000000000e+00,7.308571192687206286e-03,-9.999732920369029943e-01,3.067491154362090242e+02
2.001566993157945618e+00,5.562489262143496482e+00,7.704432318317318895e+00,0.000000000000000000e+00,5.846819467267653885e-03,-9.999829072049767342e-01,3.087067017767893162e+02
1.987339825343145572e+00,5.192309074121437718e+00,7.673518883325463058e+00,0.000000000000000000e+00,4.385077115760825650e-03,-9.999903855031251343e-01,3.106642881173696082e+02
1.988483428382958218e+00,4.832722475972943244e+00,7.647524284539358064e+00,0.000000000000000000e+00,2.923353508175618402e-03,-9.999957269930037640e-01,3.126218744579499003e+02
2.007349185425793436e+00,4.485977563193975115e+00,7.628723648771194021e+00,0.000000000000000000e+00,1.461658013619830535e-03,-9.999989317773551045e-01,3.145794607985301923e+02
2.046436867342692700e+00,4.154391846223307816e+00,7.619443378267181544e+00,-0.000000000000000000e+00,-0.000000000000000000e+00,-1.000000000000000000e+00,3.165370471391104843e+02
2.091924381916306253e+00,3.921630045897328554e+00,7.620497305482274442e+00,1.060054773224697159e-04,0.000000000000000000e+00,-9.999999943814193992e-01,3.179875303475966462e+02
2.176182358914235504e+00,3.627098041055353494e+00,7.631232331346341269e+00,2.120109561260726005e-04,0.000000000000000000e+00,-9.999999775256770418e-01,3.199451166881769382e+02
2.283136241326835236e+00,3.354381899572031589e+00,7.648315985070477829e+00,3.180164328372064105e-04,0.000000000000000000e+00,-9.999999494327729277e-01,3.219027030287572302e+02
2.412973982646435811e+00,3.105907640713397644e+00,7.668625795032221859e+00,4.240219038822693907e-04,0.000000000000000000e+00,-9.999999101027085002e-01,3.238602893693375222e+02
2.566071106148610781e+00,2.884271902159253109e+00,7.689062284131882308e+00,5.300273656876602468e-04,0.000000000000000000e+00,-9.999998595354860909e-01,3.258178757099178142e+02
2.741629033766534107e+00,2.691175393220841983e+00,7.706498360920062574e+00,4.651046147315422382e-04,0.000000000000000000e+00,-9.999998918388428581e-01,3.277754620504981062e+02
2.774795561229106866e+00,2.663171215876692699e+00,7.708520464554322160e+00,4.001818598290745807e-04,0.000000000000000000e+00,-9.999999199272362471e-01,3.281074429097906204e+02
2.987639989840279231e+00,2.525409727904552870e+00,7.713011595260755193e+00,3.352591018011984625e-04,0.000000000000000000e+00,-9.999999438006658137e-01,3.300650292503709125e+02
3.214260567347004827e+00,2.414943570078969426e+00,7.707403378418271167e+00,2.703363414688552346e-04,0.000000000000000000e+00,-9.999999634591305586e-01,3.320226155909512045e+02
3.450290265222114350e+00,2.331110987389044098e+00,7.688297506289279326e+00,2.054135796529863020e-04,0.000000000000000000e+00,-9.999999789026304819e-01,3.339802019315314965e+02
3.691424618100275890e+00,2.273480462966110505e+00,7.652199465138070700e+00,1.404908171745332596e-04,0.000000000000000000e+00,-9.999999901311650286e-01,3.359377882721117885e+02
3.933392904288392611e+00,2.241847192045808956e+00,7.595493627760137478e+00,7.556805485443768885e-05,0.000000000000000000e+00,-9.999999971447345315e-01,3.378953746126920805e+02
4.171929544894525499e+00,2.236231439833113566e+00,7.514417482764335077e+00,1.064529351364108455e-05,0.000000000000000000e+00,-9.999999999433388798e-01,3.398529609532723725e+02
4.402745533395612476e+00,2.256878770392276579e+00,7.405034816924954910e+00,0.000000000000000000e+00,2.371239420780988857e-02,-9.997188216498343882e-01,3.418105472938526646e+02
4.622712151580638640e+00,2.303421713846610874e+00,7.265048233574698422e+00,-3.270580447850412499e-03,2.436603752391113681e-02,-9.996977540831616382e-01,3.437681336344329566e+02
4.767876451377492053e+00,2.352851004040683147e+00,7.146811769688738103e+00,-6.924245345447842953e-03,2.509593040662299462e-02,-9.996610671139604110e-01,3.451331307471632499e+02
4.964410109702542151e+00,2.445916356056408780e+00,6.950164816800836753e+00,-1.103230503939547046e-02,2.591620457943772868e-02,-9.996032405838400914e-01,3.470907170877435419e+02
5.149477152303041372e+00,2.558866508941004980e+00,6.728886497968105118e+00,-1.568488448171692293e-02,2.684470270673915832e-02,-9.995165563087896610e-01,3.490483034283238339e+02
5.323196792888367668e+00,2.689501056802388934e+00,6.485403546078067905e+00,-2.099754392637697559e-02,2.790427751938226106e-02,-9.993900411977203468e-01,3.510058897689041260e+02
5.485587008667345721e+00,2.835745327326961718e+00,6.221984428255276534e+00,-2.712089495271033379e-02,2.912467534829183899e-02,-9.992077913741569395e-01,3.529634761094844180e+02
5.636565763273282847e+00,2.995636484424581525e+00,5.940755514578650143e+00,-3.425491352803367723e-02,3.054533396780487881e-02,-9.989462365272628874e-01,3.549210624500647100e+02
5.775951386865990855e+00,3.167310422541560033e+00,5.643716233989534814e+00,-4.267084721313909451e-02,3.221965471288363442e-02,-9.985695231921989379e-01,3.568786487906450020e+02
5.903462123036604225e+00,3.348989366714006710e+00,5.332753325415029444e+00,-5.274583691926860302e-02,3.422173505340756622e-02,-9.980214173742065764e-01,3.588362351312252940e+02
6.018714845385568779e+00,3.538970097418411953e+00,5.009654285682974439e+00,-6.501970015736073527e-02,3.665737330404770372e-02,-9.972104469839324636e-01,3.607938214718055860e+02
6.121222939953841369e+00,3.735612723744347274e+00,4.676120110080512760e+00,-8.029219145349972275e-02,3.968283936406265255e-02,-9.959811425180702393e-01,3.627514078123858781e+02
6.210393343010644607e+00,3.937329932398190735e+00,4.333777416365313329e+00,-9.979836072075808084e-02,4.353853965454371894e-02,-9.940546678941754033e-01,3.647089941529661701e+02
6.285522716982398173e+00,4.142576643573904427e+00,3.984190038643093956e+00,-1.255446777253032831e-01,4.861309940111964434e-02,-9.908962107412998543e-01,3.666665804935464621e+02
6.345792740493669370e+00,4.349840007823462251e+00,3.628870173747839267e+00,-1.610024078236834966e-01,5.557429033040113542e-02,-9.853881077673144473e-01,3.686241668341267541e+02
6.390264481532587304e+00,4.557629680748597423e+00,3.269289159573019354e+00,-2.126681788783995330e-01,6.565947979572371584e-02,-9.749159340196980050e-01,3.705817531747070461e+02
6.417871815596094542e+00,4.764468314638206081e+00,2.906887962177544971e+00,-2.939277334940575415e-01,8.137698821287410456e-02,-9.523572193628020432e-01,3.725393395152873381e+02
6.427413843257621551e+00,4.968882208111576659e+00,2.543087446413762720e+00,-4.351395790885699832e-01,1.082324050707013929e-01,-8.938340411973768607e-01,3.744969258558676302e+02
6.417546253875898721e+00,5.169392056411093783e+00,2.179298503282276034e+00,-6.984444506119869001e-01,1.562599604809600251e-01,-6.983968600729878462e-01,3.764545121964479222e+02
6.387638566791767225e+00,5.365018849786705957e+00,1.816856610873036182e+00,-9.788138145780179711e-01,1.970872086751439822e-01,-5.549908618950098738e-02,3.784120985370282142e+02
6.338642726320667720e+00,5.555782742461627066e+00,1.456955857794259623e+00,-7.760492197446611229e-01,1.406339336576934440e-01,6.147924082466098561e-01,3.803696848776085062e+02
6.272242090351688226e+00,5.742173444017929285e+00,1.100732949483389511e+00,-5.375252600318489726e-01,8.761669218016041039e-02,8.386834385387016422e-01,3.823272712181887982e+02
6.256060604489198873e+00,5.777849868448436510e+00,1.031940343923839931e+00,-4.041505740844233974e-01,5.918325544612615396e-02,9.127757970838344947e-01,3.827103699637582395e+02
6.157997375153909658e+00,5.956223631174718314e+00,6.860326213972871567e-01,-3.260911695058079096e-01,4.282139486257306032e-02,9.443679777037963241e-01,3.846679563043385315e+02
6.045791375906961918e+00,6.130971862283688623e+00,3.468312267496961310e-01,-2.760041011708830871e-01,3.241833291032891057e-02,9.606095917843877618e-01,3.866255426449188235e+02
5.920682693022546239e+00,6.302426321131370024e+00,1.562042392277456816e-02,-2.414320529128997361e-01,2.527880963264704517e-02,9.700884215419846024e-01,3.885831289854991155e+02
5.783821603436681613e+00,6.470884218276640176e+00,-3.062585694734375474e-01,-2.162297663460284736e-01,2.009470919576882356e-02,9.761356928256847976e-01,3.905407153260794075e+02
5.636276533651502163e+00,6.636611128518841163e+00,-6.173980224996243882e-01,-1.970808213584800128e-01,1.616708170232303635e-02,9.802539341017190155e-01,3.924983016666596995e+02
5.479041456087535344e+00,6.799843607280016577e+00,-9.163136571447764167e-01,-1.820551503729846143e-01,1.309191831317856394e-02,9.832011614606397387e-01,3.944558880072399916e+02
5.313042773395396878e+00,6.960791533967748634e+00,-1.201434068987922155e+00,-1.699587993664687380e-01,1.062053793466308238e-02,9.853939368049140501e-01,3.964134743478202836e+02
5.139145737767277566e+00,7.119640203555068325e+00,-1.471089526858980978e+00,-1.600156697709808062e-01,8.591907532633899849e-03,9.870770813633023000e-01,3.983710606884005756e+02
4.958160449133923287e+00,7.276552185396718997e+00,-1.723500071666769884e+00,-1.517003250025237282e-01,6.897333188527292151e-03,9.884024677169797046e-01,4.003286470289808676e+02
4.770847473272033845e+00,7.431668966248000885e+00,-1.956762829567962436e+00,-1.446447674971493846e-01,5.460876416989050852e-03,9.894685796246659448e-01,4.022862333695611596e+02
4.577923118264217273e+00,7.585112392544933080e+00,-2.168838449050657591e+00,-1.385837849409662648e-01,4.227920684549802723e-03,9.903416881249225145e-01,4.042438197101414517e+02
4.380064405431175700e+00,7.736985925226461447e+00,-2.357536565260917261e+00,-1.333215136254347621e-01,3.158200212571770412e-03,9.910678078598055274e-01,4.062014060507217437e+02
4.177913768774576653e+00,7.887375718717946071e+00,-2.520500187968085282e+00,-1.287102214118544530e-01,2.221388894092178254e-03,9.916797589622834419e-01,4.081589923913020357e+02
3.972083515118235209e+00,8.036351534134908547e+00,-2.655188901892698183e+00,-1.246364125268370204e-01,1.394218314632414760e-03,9.922015021293463244e-01,4.101165787318823277e+02
3.763160075502054003e+00,8.183967495292476357e+00,-2.758860759655843431e+00,-1.210114731840486874e-01,6.585415362714999808e-04,9.926508901325133971e-01,4.120741650724626197e+02
3.551708076955924831e+00,8.330262694708208571e+00,-2.828552738290643465e+00,-1.177652196089313680e-01,0.000000000000000000e+00,9.930414659270077049e-01,4.140317514130429117e+02
3.338435502749023343e+00,8.474849204702847416e+00,-2.861965328105819495e+00,-7.875138647958604410e-02,-3.907659485333632443e-02,9.961281237181345283e-01,4.159893377536232038e+02
3.207331693418503438e+00,8.561479525490454989e+00,-2.859763032768407598e+00,-3.937569398339047649e-02,-7.815319118257080255e-02,9.961634571852687747e-01,4.171872768324025174e+02
2.993233523271833008e+00,8.698554056167111526e+00,-2.819071349504667090e+00,0.000000000000000000e+00,-1.168706797253571267e-01,9.931471412739065752e-01,4.191448631729828094e+02
2.780532376129456473e+00,8.829707354932081032e+00,-2.740926329262346695e+00,3.528917619882777218e-02,-1.677695373135883461e-01,9.851944256809376244e-01,4.211024495135631014e+02
2.573150402319436925e+00,8.951575127653500275e+00,-2.627292024176295815e+00,7.167831704914423563e-02,-2.197747883438991856e-01,9.729137995081561519e-01,4.230337648481449833e+02
2.366488565703545710e+00,9.065845871567919545e+00,-2.477348577297783461e+00,1.087443894416666029e-01,-2.722368744780782057e-01,9.560657623507738956e-01,4.249913511887252753e+02
2.164390380673366643e+00,9.169230931071799873e+00,-2.295736899745283832e+00,1.460013470729964458e-01,-3.244327835218775435e-01,9.345731515665945954e-01,4.269489375293055673e+02
1.967890147082508534e+00,9.260003616446772057e+00,-2.085335074334840222e+00,1.829279145294851749e-01,-3.756097133557893542e-01,9.085453875941890134e-01,4.289065238698858593e+02
1.778045995706057703e+00,9.336337475223377425e+00,-1.848815979373898521e+00,2.190020207221151094e-01,-4.250362666323186933e-01,8.782837166695569575e-01,4.308641102104661513e+02
1.595946510023780185e+00,9.396292992972648861e+00,-1.588666339855386633e+00,2.537369089545934986e-01,-4.720535577862963184e-01,8.442647805134761985e-01,4.328216965510464433e+02
1.422717440307867509e+00,9.437803424960877763e+00,-1.307204451827782776e+00,2.867132686230191019e-01,-5.161181511779057152e-01,8.071044267133001826e-01,4.347792828916267354e+02
1.259528549774916906e+00,9.458659656406419813e+00,-1.006596706273283015e+00,3.176025864001144061e-01,-5.568305003724073332e-01,7.675079093839831668e-01,4.367368692322070274e+02
1.107600632535113316e+00,9.456493981771622259e+00,-6.888730302693553131e-01,3.461790115478040053e-01,-5.939459257241979095e-01,7.262150709530964532e-01,4.386944555727873194e+02
1.021526639207842813e+00,9.440015753797965203e+00,-4.836111696126130788e-01,3.730002940945622569e-01,-6.585538669733481676e-01,6.535882380366249134e-01,4.399016508629803752e+02
8.950890087210598978e-01,9.389539792849852518e+00,-1.377667595067141593e-01,3.976325766917401805e-01,-7.206161658691753180e-01,5.679794674471043692e-01,4.418592372035606672e+02
7.824926551797029006e-01,9.317593540222441462e+00,2.187455421048070670e-01,4.185148779743332881e-01,-7.768175051315258095e-01,4.705314661479728655e-01,4.438168235441409593e+02
6.845838667013457446e-01,9.226468055217406317e+00,5.835762105238609943e-01,4.342648998545775019e-01,-8.239733358913650108e-01,3.639806842324871949e-01,4.457744098847212513e+02
6.023349045122423639e-01,9.118308983271770529e+00,9.544350109724447639e-01,4.440112943389266653e-01,-8.597378963399656682e-01,2.523979399606929297e-01,4.477319962253015433e+02
5.368497138004810765e-01,8.995130700955812131e+00,1.329074674722044769e+00,4.476031950668049597e-01,-8.831324650332275095e-01,1.404579259790020851e-01,4.496895825658818353e+02
4.893707062542009822e-01,8.858829465624788568e+00,1.705274881467171877e+00,4.455936070206101274e-01,-8.946445331589906180e-01,3.251917389931663349e-02,4.516471689064621273e+02
4.612866542317313745e-01,8.711195653634300484e+00,2.080826433775895712e+00,4.390216570551887521e-01,-8.958922234213534397e-01,-6.809631891416674521e-02,4.536047552470424193e+02
4.535765440690218697e-01,8.553716439475129718e+00,2.453549169132034802e+00,4.361507850460406011e-01,-8.876658822441102492e-01,-1.477219489565040067e-01,4.555623415876227114e+02
4.629517807980467192e-01,8.431731684566038609e+00,2.723294657746608838e+00,4.302864311534108643e-01,-8.732817482878086901e-01,-2.285444711049674782e-01,4.569981319053662219e+02
4.958658633252187031e-01,8.257308910973746308e+00,3.084018537056251397e+00,4.213648275402278598e-01,-8.526583047272646709e-01,-3.089101770606159647e-01,4.589557182459465139e+02
5.485874890675209725e-01,8.075430972315551514e+00,3.435516838247741678e+00,4.095090214200683976e-01,-8.260973173627793598e-01,-3.871247649293407256e-01,4.609133045865268059e+02
6.210138203316895034e-01,7.886711046076439580e+00,3.775538923229277977e+00,3.950226034252588003e-01,-7.942658929855188621e-01,-4.616262926037107972e-01,4.628708909271070979e+02
7.131890221909571448e-01,7.691713699622180656e+00,4.101752356021124868e+00,3.783535305516018687e-01,-7.581180222335275332e-01,-5.311362069035234779e-01,4.648284772676873899e+02
8.248552063227175823e-01,7.491352682157332410e+00,4.412319187059670966e+00,3.535955984509715488e-01,-7.275844432322002842e-01,-5.878699096931125911e-01,4.667860636082676820e+02
9.550061184601156272e-01,7.287296718015792152e+00,4.706475761999024954e+00,3.257260369552247847e-01,-6.917138810785001812e-01,-6.445420510507920975e-01,4.687436499488479740e+02
9.937737528706523937e-01,7.233292175030730853e+00,4.779291849311622542e+00,2.948480401237960069e-01,-6.504412291425979431e-01,-6.999934575884426691e-01,4.692574194189622290e+02
1.158212037507572179e+00,7.027218808078063539e+00,5.039580934072305674e+00,2.612378394074146293e-01,-6.039778909734442314e-01,-7.529711139725189240e-01,4.712150057595425210e+02
1.338283292763218446e+00,6.822306851649063475e+00,5.282152743034128406e+00,2.253491704177326138e-01,-5.528420173386201508e-01,-8.022365332350581690e-01,4.731725921001228130e+02
1.533084970108258727e+00,6.620622026696520557e+00,5.506351823422988012e+00,1.877909748336344664e-01,-4.978462235663475011e-01,-8.466898413538216372e-01,4.751301784407031050e+02
1.741839545754966911e+00,6.424260861292499847e+00,5.711391769002569951e+00,1.492787641642967233e-01,-4.400382203800470848e-01,-8.854841699174194058e-01,4.770877647812833970e+02
1.963889282338080911e+00,6.235364543779100543e+00,5.896349614883980905e+00,1.105680135879550663e-01,-3.806032836839751687e-01,-9.181044901427012350e-01,4.790453511218636891e+02
2.198691980374167354e+00,6.056133138640176661e+00,6.060159259001541621e+00,7.238356247886927608e-02,-3.207490290048424786e-01,-9.443943457451015044e-01,4.810029374624439811e+02
2.445817692745040350e+00,5.888840257680621804e+00,6.201603863365884983e+00,3.535955907233816892e-02,-2.615971054938831530e-01,-9.645292406036387600e-01,4.829605238030242731e+02
2.704946383236719765e+00,5.735848282563392075e+00,6.319307180933299684e+00,-0.000000000000000000e+00,-2.041017182454783752e-01,-9.789496864544384724e-01,4.849181101436045651e+02
2.975226314098405211e+00,5.598964332019399137e+00,6.412231194685070079e+00,-4.695089142360747703e-02,-1.715142162470272846e-01,-9.840622375742789085e-01,4.868756964841848571e+02
3.202476545216321302e+00,5.501371499206493709e+00,6.467459090778111985e+00,-9.438316984268300958e-02,-1.379068042376048464e-01,-9.859378938834931771e-01,4.884673853202915552e+02
3.488668880117219206e+00,5.398346146496808551e+00,6.510463032576835118e+00,-1.418179278628407258e-01,-1.035977630501700580e-01,-9.844567937841106620e-01,4.904249716608718472e+02
3.779013254608327710e+00,5.312474086343105917e+00,6.528471423591864387e+00,-1.887663415927729460e-01,-6.893344746182232530e-02,-9.795996366387181853e-01,4.923825580014521393e+02
4.070986362230048172e+00,5.244137428539706214e+00,6.521257981845973717e+00,-2.347544618139630335e-01,-3.427107821610043958e-02,-9.714503774544238635e-01,4.943401443420324313e+02
4.362080809140173265e+00,5.193866756120353756e+00,6.488416654235226844e+00,-2.793467611515190185e-01,3.937469914031367576e-05,-9.601902860807274287e-01,4.962977306826127233e+02
4.650007878596671418e+00,5.161344903186343203e+00,6.429950811169726776e+00,-3.500785943974882852e-01,3.200568548579111380e-03,-9.367148627547471351e-01,4.982553170231930153e+02
4.877042976820310294e+00,5.147969417614029375e+00,6.363236106264339220e+00,-4.225021165155245506e-01,6.512300960497111046e-03,-9.063385413167102111e-01,4.998263718820108465e+02
5.153202254434509300e+00,5.144430329867576646e+00,6.256772365233932653e+00,-4.951875732267752017e-01,9.920204076751419631e-03,-8.687294497557066508e-01,5.017839582225911386e+02
5.420847462376261916e+00,5.151125242982769414e+00,6.128178484317060359e+00,-5.664973303807125937e-01,1.335671148156745112e-02,-8.239553221685773643e-01,5.037415445631714306e+02
5.678103475082786566e+00,5.165214322884398079e+00,5.978551589436678526e+00,-6.347362412190622472e-01,1.674643349361205902e-02,-7.725473843385534112e-01,5.056991309037517226e+02
5.922994673554152101e+00,5.183928315950403487e+00,5.808838891592781550e+00,-6.983347128240379176e-01,2.001372543241974541e-02,-7.154914951690789504e-01,5.076567172443320146e+02
6.153431315803816304e+00,5.204549750530405916e+00,5.619844438200249925e+00,-7.560226481321602465e-01,2.309084430449337769e-02,-6.541380346842258220e-01,5.096143035849123066e+02
6.367194916648777792e+00,5.224394638366968380e+00,5.412234844015584301e+00,-8.069514308629084365e-01,2.592473469042952047e-02,-5.900485542390010441e-01,5.115718899254925986e+02
6.561922535853408789e+00,5.240794554758596568e+00,5.186544042500466745e+00,-8.507380076179038575e-01,2.848093014659772160e-02,-5.248177579048790564e-01,5.135294762660729475e+02
6.735089864700637641e+00,5.251078979979663330e+00,4.943177091487503283e+00,-8.874313235737447680e-01,3.074407577672122124e-02,-4.599135220286383330e-01,5.154870626066532395e+02
6.833303570711471764e+00,5.252693107491837488e+00,4.772406925498405172e+00,-8.989596738165431811e-01,8.363341067224056014e-02,-4.299732055267893038e-01,5.167713103685159695e+02
6.959238252234120736e+00,5.247215180897089049e+00,4.496779632388126835e+00,-9.072657853036322217e-01,1.380122086303103845e-01,-3.972674478060935210e-01,5.187288967090962615e+02
7.062012205120861807e+00,5.234507247198127544e+00,4.207986342696328208e+00,-9.119272074957718299e-01,1.932485294794878961e-01,-3.619996879597813244e-01,5.206864830496765535e+02
7.142218175504448041e+00,5.215421245080896107e+00,3.908191704988705162e+00,-9.126290613098442250e-01,2.486244012063821840e-01,-3.244905292569887911e-01,5.226440693902568455e+02
7.200294400007787310e+00,5.190758802444364939e+00,3.599481954587009369e+00,-9.091983227149698088e-01,3.033767047726279031e-01,-2.851683449711546747e-01,5.246016557308371375e+02
7.236527323594635241e+00,5.161278372650114576e+00,3.283879783412620768e+00,-9.016254413258885103e-01,3.567468784743744736e-01,-2.445469857771441768e-01,5.265592420714174295e+02
7.251053291152857128e+00,5.127702042019856243e+00,2.963358756918958559e+00,-8.900686671857163113e-01,4.080323514536255969e-01,-2.031929326070851527e-01,5.285168284119977216e+02
7.243859222202440939e+00,5.090722066616097052e+00,2.639857380870834103e+00,-8.748398832098863709e-01,4.566318061044098431e-01,-1.616866487967916488e-01,5.304744147525780136e+02
7.214782271340657083e+00,5.051007194351786467e+00,2.315292918232626729e+00,-8.563746220435619616e-01,5.020776642049333827e-01,-1.205841027095377327e-01,5.324320010931583056e+02
7.163508470259206007e+00,5.009208826947958215e+00,1.991575054646362863e+00,-8.351919860094663139e-01,5.440521584196161831e-01,-8.038404956532353707e-02,5.343895874337385976e+02
7.089570340348926081e+00,4.965967075183944424e+00,1.670619509901901223e+00,-8.838572663660483331e-01,4.662736203529921353e-01,3.721886154693686277e-02,5.363471737743188896e+02
6.992343458001619716e+00,4.921916760255133028e+00,1.354361692415936513e+00,-9.142995659251547114e-01,3.707153908851415491e-01,1.631759869280720587e-01,5.383047601148991816e+02
6.871041947680185835e+00,4.877693413865138439e+00,1.044770494043083753e+00,-9.208891648225518978e-01,2.625738083159671055e-01,2.881286887813720443e-01,5.402623464554794737e+02
6.761572686182254266e+00,4.844853079537863039e+00,8.194204030470905176e-01,-9.031065787096447250e-01,1.503740694786303289e-01,4.022264868451558839e-01,5.417282423123962189e+02
6.589612732324457767e+00,4.801974569377040147e+00,5.291566768871156512e-01,-8.657294076430799290e-01,4.290388604163330316e-02,4.986700806189284796e-01,5.436858286529765110e+02
6.391664448528003639e+00,4.760800025867824914e+00,2.513860191971802327e-01,-8.412714922966975095e-01,1.643861211135741740e-01,5.150140575111722407e-01,5.456434149935568030e+02
6.169216959214562479e+00,4.721980797064839308e+00,-1.256128227367506178e-02,-8.003244961182692796e-01,2.920910800963413823e-01,5.236062469463012015e-01,5.476010013341370950e+02
5.924581083771220058e+00,4.686159157313336543e+00,-2.615607250925274796e-01,-7.424798747208293248e-01,4.191658680095753930e-01,5.225166128749600958e-01,5.495585876747173870e+02
5.659914163812450383e+00,4.653978207086304941e+00,-4.943812645840136022e-01,-6.701604673922154642e-01,5.380689383720788088e-01,5.112404184958299069e-01,5.515161740152976790e+02
5.479523135157342573e+00,4.636003810188575436e+00,-6.317842538575418887e-01,-5.882036322916559534e-01,6.426218574380608839e-01,4.909721329177032523e-01,5.527652595407670333e+02
5.180553344863960241e+00,4.612419632989505303e+00,-8.282617771468386847e-01,-5.024143593103287397e-01,7.294795710168736624e-01,4.641544646212399372e-01,5.547228458813473253e+02
4.867312258475998910e+00,4.594278215314434810e+00,-1.004423267293577560e+00,-4.935791710221932860e-01,6.698663344897253236e-01,5.546698980928601586e-01,5.566804322219276173e+02
4.542316530579082468e+00,4.582208474006666421e+00,-1.158843194451199654e+00,-4.755703501693607227e-01,5.890483931099139703e-01,6.533412834150464921e-01,5.586380185625079093e+02
4.208280640875830869e+00,4.576836074652597119e+00,-1.290049300077339645e+00,-4.448046622485415380e-01,4.831007426049672149e-01,7.541634338367846357e-01,5.605956049030882014e+02
3.867859997391607685e+00,4.578809783976590886e+00,-1.396403866941062333e+00,-3.986111149549178001e-01,3.517984975014502025e-01,8.469633971961949559e-01,5.625531912436684934e+02
3.543077951768268452e+00,4.588189533114602092e+00,-1.471617084874978332e+00,-3.372795247147256648e-01,2.014463426850187366e-01,9.195987675214873924e-01,5.644003628778004895e+02
3.197694211617751581e+00,4.606784924562215444e+00,-1.522717329355119054e+00,-2.652753217796693930e-01,4.471977744655745296e-02,9.631350607053110746e-01,5.663579492183807815e+02
2.854048633707817473e+00,4.635108400373748161e+00,-1.544131703615234441e+00,-1.898678152446907075e-01,-1.040310321999752263e-01,9.762826215157246468e-01,5.683155355589610735e+02
2.515758487746897920e+00,4.674820217936860978e+00,-1.536773478333788301e+00,-1.179563772437849239e-01,-2.345537258845033779e-01,9.649201224667351973e-01,5.702731218995413656e+02
2.186829737351367431e+00,4.727917702500369579e+00,-1.502462027131794775e+00,-5.381878693291020782e-02,-3.429229103764301900e-01,9.378205669060732941e-01,5.722307082401216576e+02
2.158027507869619832e+00,4.733907343973316806e+00,-1.497019169360825908e+00,1.054433382684529484e-03,-4.300331969161960144e-01,9.028124598831572811e-01,5.724084277348870273e+02
1.854392563843505259e+00,4.813322203349200024e+00,-1.412448826165113580e+00,5.936886082776759999e-02,-4.586488818677530999e-01,8.866321342729874821e-01,5.743660140754673193e+02
1.567360710864713180e+00,4.908228031747848163e+00,-1.304865258856179100e+00,1.188010439908855631e-01,-4.858187122573658923e-01,8.659483187623094880e-01,5.763236004160476114e+02
1.299591592682447727e+00,5.018653762739044843e+00,-1.176250720126140292e+00,1.785272233561128463e-01,-5.110511534102131215e-01,8.408060115858160266e-01,5.782811867566279034e+02
1.053883892517469389e+00,5.144714063388798664e+00,-1.028437562448840215e+00,2.376746698686645898e-01,-5.339169522054149075e-01,8.114452781614431842e-01,5.802387730972081954e+02
8.331962258072911354e-01,5.286608778413776299e+00,-8.631212983474522149e-01,2.953831720711154740e-01,-5.540835595963644611e-01,7.782931264261735427e-01,5.821963594377884874e+02
6.406691786752732876e-01,5.444622785447672975e+00,-6.818726853246229735e-01,3.508664971074874628e-01,-5.713388908188477000e-01,7.419329976793122006e-01,5.841539457783687794e+02
5.394495237877937610e-01,5.553837034054143196e+00,-5.591412930207501075e-01,4.034638481846201108e-01,-5.856005661191168166e-01,7.030568257040307190e-01,5.853812032246279387e+02
4.105342537945047554e-01,5.743741583135929751e+00,-3.501594179339403423e-01,4.072708244082658413e-01,-6.150902438883451007e-01,6.751255197807203290e-01,5.873387895652082307e+02
3.131328681977562645e-01,5.947819957115596523e+00,-1.292985925677811176e-01,4.106930785010345919e-01,-6.465256049949108519e-01,6.429119981438420339e-01,5.892963759057885227e+02
2.449286196423447470e-01,6.163927778473782482e+00,1.021051624865434160e-01,4.135067951978205758e-01,-6.798060765229559932e-01,6.057027560179107928e-01,5.912539622463688147e+02
2.037952226213913531e-01,6.390027070373665907e+00,3.427909723394163000e-01,4.154168307011915640e-01,-7.146908873799860951e-01,5.627128861739222332e-01,5.932115485869491067e+02
1.877824832145499612e-01,6.624170009887241584e+00,5.915641207929460688e-01,4.160444355046115095e-01,-7.507425648764690651e-01,5.131204819224718383e-01,5.951691349275293987e+02
1.951030478065001184e-01,6.864483452393780993e+00,8.472875348836267362e-01,4.149206302282087422e-01,-7.872634662443797060e-01,4.561327716004525135e-01,5.971267212681096908e+02
2.241201821357775292e-01,7.109154106695621422e+00,1.108873680281817542e+00,4.114923736238829677e-01,-8.232368328483964381e-01,3.910948011558376680e-01,5.990843076086899828e+02
2.733364983412751581e-01,7.356414245835003918e+00,1.375276809785491938e+00,4.051511496040771654e-01,-8.572943928976132222e-01,3.176458245921190970e-01,6.010418939492702748e+02
3.413835534462128507e-01,7.604527843147614874e+00,1.645485509659871504e+00,3.952935551345341247e-01,-8.877432613254596649e-01,2.359129230040982184e-01,6.029994802898505668e+02
4.270122479797170967e-01,7.851777026800605519e+00,1.918515490686935276e+00,3.814173932643449283e-01,-9.126876079414413256e-01,1.467041322715962326e-01,6.049570666304308588e+02
5.290839582139598152e-01,8.096448748987873145e+00,2.193402572543264206e+00,3.632420508999182895e-01,-9.302630456763676392e-01,5.163214412504591594e-02,6.069146529710111508e+02
6.465623398194061400e-01,8.336821568081724365e+00,2.469195811507844951e+00,3.408215204094600659e-01,-9.389567509287459757e-01,-4.691386906999459039e-02,6.088722393115914429e+02
7.785057446345603482e-01,8.571152443392120901e+00,2.744950722516099617e+00,3.146044784758540991e-01,-9.379275879733055543e-01,-1.459995268537304658e-01,6.108298256521717349e+02
9.240601957288890889e-01,8.797663442796155309e+00,3.019722547248969935e+00,2.854044634940646197e-01,-9.272074930042776275e-01,-2.425501126249734463e-01,6.127874119927520269e+02
1.082452869028216247e+00,9.014528263368891459e+00,3.292559520275954554e+00,2.542782549451875762e-01,-9.076966997571644935e-01,-3.338102309875807805e-01,6.147449983333323189e+02
1.252986032488933699e+00,9.219858464275496601e+00,3.562496085256561695e+00,2.223526164063180099e-01,-8.809543833233394183e-01,-4.177064621006710832e-01,6.167025846739126109e+02
1.435031396150952654e+00,9.411689309566247275e+00,3.828546012855220670e+00,1.906593559464211940e-01,-8.488744193393962245e-01,-4.930124036789528263e-01,6.186601710144929029e+02
1.627797610303368003e+00,9.587936351584561478e+00,4.089839979726883179e+00,1.600248038727335731e-01,-8.133653618148076747e-01,-5.593110497257854918e-01,6.206177573550731950e+02
1.830096110186971936e+00,9.746354005387010133e+00,4.345763980747838318e+00,1.310275602949961260e-01,-7.761191218435283812e-01,-6.168232219623152046e-01,6.225753436956534870e+02
2.040558254723185083e+00,9.884551974216414294e+00,4.595810344207162501e+00,1.040111029374225088e-01,-7.384935666582876923e-01,-6.661898696843582268e-01,6.245329300362337790e+02
2.257851396025648327e+00,1.000000794843401941e+01,4.839429504891423761e+00,7.912701074138389634e-02,-7.014896949881258559e-01,-7.082733398883507281e-01,6.264905163768140710e+02
2.480668005707180157e+00,1.009004930317963655e+01,5.076026086987753594e+00,5.638728692490983102e-02,-6.657872105414081032e-01,-7.440079731782036632e-01,6.284481027173943630e+02
2.707714808613395530e+00,1.015183382206006080e+01,5.304954660476114192e+00,3.571243950538929846e-02,-6.318055973507110679e-01,-7.743037574627190667e-01,6.304056890579746550e+02
2.739024145048730041e+00,1.015634371046804141e+01,5.334992563918445896e+00,1.696961669501723460e-02,-5.997688252329758107e-01,-7.999933677149332345e-01,6.306721340469653114e+02
2.971180954435225452e+00,1.015897713845208017e+01,5.546920849418261135e+00,-0.000000000000000000e+00,-5.697624465780825043e-01,-8.218094392676185134e-01,6.326297203875456034e+02
3.204127154693467094e+00,1.012775673572578050e+01,5.749616539021767281e+00,-6.150291360614097702e-02,-5.153446443473215233e-01,-8.547732384442603415e-01,6.345873067281258955e+02
3.435400885384613190e+00,1.006306990878531593e+01,5.942928454752626877e+00,-1.266772660556074737e-01,-4.527482809813652698e-01,-8.825938274954655549e-01,6.365448930687061875e+02
3.662147042405847319e+00,9.966439249293763680e+00,6.126883842464076579e+00,-1.939736539183824215e-01,-3.825759900476556896e-01,-9.033326261265047785e-01,6.385024794092864795e+02
3.881491106129673962e+00,9.839185514781307873e+00,6.301443258326392183e+00,-2.613967724657509373e-01,-3.062129408602291547e-01,-9.153717071191451726e-01,6.404600657498667715e+02
4.090516676942584695e+00,9.682437347044652753e+00,6.466500287681659742e+00,-3.267459655841925548e-01,-2.257594698102096120e-01,-9.177525460413971103e-01,6.424176520904470635e+02
4.286242794046283500e+00,9.497139825575400707e+00,6.621880786558133281e+00,-3.879473078437521427e-01,-1.437688524861823192e-01,-9.103995844636526558e-01,6.443752384310273555e+02
4.465600864147289073e+00,9.284061919920226558e+00,6.767341640438233163e+00,-4.433704312073977194e-01,-6.285724823099575476e-02,-8.941317727694241269e-01,6.463328247716076476e+02
4.605981519081389308e+00,9.073266299806610036e+00,6.886019614398692035e+00,-4.920233088678365729e-01,1.468271335917652708e-02,-8.704582020172810797e-01,6.480509883307511245e+02
4.743331008843904684e+00,8.806508250530244553e+00,7.010574835298585050e+00,-5.335785543036569711e-01,8.714309002340615840e-02,-8.412490762243913789e-01,6.500085746713314165e+02
4.855857255834600039e+00,8.514333955440948287e+00,7.124339436167130835e+00,-5.160853444599409201e-01,7.566961824126421099e-02,-8.531881539900124656e-01,6.519661610119117086e+02
4.943650583697233536e+00,8.199596510851456799e+00,7.227820128072481864e+00,-4.982613553842847320e-01,6.413208181919093087e-02,-8.646517783548195446e-01,6.539237473524920006e+02
5.007894636035251423e+00,7.865898111325834385e+00,7.321799140453097543e+00,-4.801366260547360598e-01,5.255045004943851433e-02,-8.756182218983202814e-01,6.558813336930722926e+02
5.049636434325409873e+00,7.516695212796675740e+00,7.406990978448194873e+00,-4.617428236454671486e-01,4.094495813954817515e-02,-8.860683242362643597e-01,6.578389200336525846e+02
5.061614991360138482e+00,7.304486917233962373e+00,7.452174611593152420e+00,-4.431129674748509051e-01,2.933593081613555809e-02,-8.959856590474999383e-01,6.589880785367739691e+02
5.061498333600647825e+00,6.933329285105634732e+00,7.521169842658247617e+00,-4.262499614083432031e-01,4.789411158193596779e-02,-9.033366617574883906e-01,6.609456648773542611e+02
5.041716092446764996e+00,6.554672422772931384e+00,7.582151763132893407e+00,-4.088347343438211712e-01,6.669898652226641245e-02,-9.101677895810857954e-01,6.629032512179345531e+02
5.003659176603805214e+00,6.170553932998537050e+00,7.634970181085867225e+00,-3.908860347244856870e-01,8.571495371280607456e-02,-9.164393349084158924e-01,6.648608375585148451e+02
4.948605781850901053e+00,5.782960103873493907e+00,7.679416718258265107e+00,-3.724269534921111346e-01,1.049034681630916649e-01,-9.221135649582106186e-01,6.668184238990951371e+02
4.877730171024131423e+00,5.393841096791253342e+00,7.715223324826635753e+00,-3.534849200956037829e-01,1.242233265308884671e-01,-9.271553140712751606e-01,6.687760102396754291e+02
4.792110845658500651e+00,5.005125798336997001e+00,7.742060368851779728e+00,-3.340916151990767635e-01,1.436310217132052147e-01,-9.315325663954496793e-01,6.707335965802557212e+02
4.692738165411746820e+00,4.618736447543025037e+00,7.759534286795511271e+00,-3.142827959325499854e-01,1.630811627259741714e-01,-9.352170114710079973e-01,6.726911829208360132e+02
4.580521468442684707e+00,4.236603147853658768e+00,7.767184778359179198e+00,-2.940980325550766050e-01,1.825269523865271637e-01,-9.381845548183573857e-01,6.746487692614163052e+02
4.456295743332132631e+00,3.860678371842266365e+00,7.764481525650246851e+00,-2.735803587574458517e-01,2.019207125409620829e-01,-9.404157661104460830e-01,6.766063556019965972e+02
4.320827900905802821e+00,3.492951566215536818e+00,7.750820413292461630e+00,-2.527758413327429454e-01,2.212144441231798930e-01,-9.418962489307388664e-01,6.785639419425768892e+02
4.174822692436282345e+00,3.135463964920539137e+00,7.725519222537823083e+00,-2.317330783718923037e-01,2.403604073769092797e-01,-9.426169184530335254e-01,6.805215282831571812e+02
4.018928319157884843e+00,2.790323719237111977e+00,7.687812768689669340e+00,-2.105026382708980182e-01,2.593117062733150124e-01,-9.425741765349894274e-01,6.824791146237374733e+02
3.886610211385143732e+00,2.525148482948126105e+00,7.646998582316346216e+00,-1.891364544501542844e-01,2.780228606283199344e-01,-9.417699775242734939e-01,6.840488090910888559e+02
3.713695386197176429e+00,2.210629032021631524e+00,7.582162647751074402e+00,-1.676871925990887635e-01,2.964503497223562323e-01,-9.402117823063742552e-01,6.860063954316691479e+02
3.535149514426346506e+00,1.913241520318177180e+00,7.502648025816347932e+00,-1.462076083374946600e-01,3.145531123434964771e-01,-9.379124025084909499e-01,6.879639817722494399e+02
3.353957363647446233e+00,1.633462674820696403e+00,7.407632418770791816e+00,-1.247499133587557513e-01,3.322929900407534665e-01,-9.348897410319351176e-01,6.899215681128297319e+02
3.173089558844852220e+00,1.371867598258936782e+00,7.296183043960930981e+00,-1.033651673915237518e-01,3.496351028580038101e-01,-9.311664389461183911e-01,6.918791544534100240e+02
2.995524848388284145e+00,1.129133905754935219e+00,7.167249985328809636e+00,-8.210271175685471268e-02,3.665481497461965943e-01,-9.267694420079951589e-01,6.938367407939903160e+02
2.824272468885992815e+00,9.060463886146923329e-01,7.019658710040836525e+00,-6.100965803965929107e-02,3.830046290212540394e-01,-9.217295024974384576e-01,6.957943271345706080e+02
2.662394774583885404e+00,7.035022369164523059e-01,6.852101696899537409e+00,-4.013044261437600374e-02,3.989809774394549868e-01,-9.160806335781973564e-01,6.977519134751509000e+02
2.513030299182497984e+00,5.225168550036830561e-01,6.663129116868917734e+00,-1.950645466914147086e-02,4.144576295055883985e-01,-9.098595339781020419e-01,6.997094998157311920e+02
2.461125062732079094e+00,4.609740594128336477e-01,6.581088720265156233e+00,8.242578295552722457e-04,4.294190013449196153e-01,-9.031050004750070803e-01,7.004684124257189524e+02
2.343998044675199122e+00,3.248261997153300551e-01,6.346898491515351459e+00,8.498997311236256057e-04,4.488146787759645928e-01,-8.936244523208140000e-01,7.024259987662992444e+02
2.242973923648430290e+00,2.109526643375425059e-01,6.091928669376795114e+00,8.788646492957177033e-04,4.708355172624565377e-01,-8.822205751857771228e-01,7.043835851068795364e+02
2.156923193841056019e+00,1.183765721098514467e-01,5.818594836294493255e+00,9.117596082371755197e-04,4.959960417937052113e-01,-8.683243030224327974e-01,7.063411714474598284e+02
2.084815668497474572e+00,4.628314623146973644e-02,5.529181683357069943e+00,9.493103740715379355e-04,5.249290664796022465e-01,-8.511454481900652125e-01,7.082987577880401204e+02
2.025714540906800920e+00,-5.986993415172905085e-03,5.225859294652643428e+00,9.923648622326172557e-04,5.584048988041303563e-01,-8.295679503232566976e-01,7.102563441286204124e+02
1.978771059815284339e+00,-3.894337587436845494e-02,4.910698614752934787e+00,1.041864477280258919e-03,5.973371168429658651e-01,-8.019895780869873425e-01,7.122139304692007045e+02
1.943219791502576621e+00,-5.295010779748978574e-02,4.585686209571623984e+00,1.098735481003081105e-03,6.427459430132576035e-01,-7.660786157571172206e-01,7.141715168097809965e+02
1.918374444600116968e+00,-4.822922212270825543e-02,4.252738425806195544e+00,1.163595461286679551e-03,6.956108502927849102e-01,-7.184178387265667265e-01,7.161291031503612885e+02
1.903624237469563329e+00,-2.486297576381658186e-02,3.913715049885860164e+00,1.236059276197610862e-03,7.564619954994387108e-01,-6.540364833267887645e-01,7.180866894909415805e+02
1.898430791624098113e+00,1.720488236120418582e-02,3.570432563781218871e+00,1.313260107387043173e-03,8.244186882129359573e-01,-5.659788881867877652e-01,7.200442758315218725e+02
1.902325538292099161e+00,7.816885912244615764e-02,3.224677092157517411e+00,1.387143517583435933e-03,8.952676635877080402e-01,-4.455265271193939447e-01,7.220018621721021645e+02
1.914907628815931684e+00,1.583624743107019395e-01,2.878217133153285978e+00,1.440962432660963972e-03,9.586210627722576705e-01,-2.846815442501587357e-01,7.239594485126824566e+02
1.935842343171459534e+00,2.582600279090588313e-01,2.532816163524257647e+00,1.448896208237357344e-03,9.965435411778376107e-01,-8.305944399352274687e-02,7.259170348532627486e+02
1.964859994504713159e+00,3.784793855425991893e-01,2.190245207993958054e+00,1.386989247509538403e-03,9.897174855382397940e-01,1.430292805012012836e-01,7.278746211938430406e+02
2.001597356796339433e+00,5.194711953618202926e-01,1.852179253104888623e+00,1.254120157398889556e-03,9.322548007748603371e-01,3.618002399320047746e-01,7.298322075344233326e+02
2.045323317343680891e+00,6.809105949892542142e-01,1.519944360948970230e+00,1.077943827699941615e-03,8.388013579342281645e-01,5.444365160097173195e-01,7.317897938750036246e+02
2.094972264332022327e+00,8.617150035433650546e-01,1.194494714494977128e+00,8.940117461649230374e-04,7.325021670372290350e-01,6.807641118836692540e-01,7.337473802155839167e+02
2.149399637402089613e+00,1.060651929102624846e+00,8.766842435138560985e-01,7.255914977820272262e-04,6.304498975482109024e-01,7.762296053349349023e-01,7.357049665561642087e+02
2.207484473709588446e+00,1.276628869207499406e+00,5.674213266515257814e-01,5.812822420363927952e-04,5.403430677386710235e-01,8.414446097383458945e-01,7.376625528967445007e+02
2.268122607193304940e+00,1.508685319424499349e+00,2.676752659950069613e-01,4.611377381426679466e-04,4.637541994099884102e-01,8.859637858747880790e-01,7.396201392373247927e+02
2.330219919549306073e+00,1.755985787320955005e+00,-2.151680412575957685e-02,3.619493454463907039e-04,3.995586871401239915e-01,9.167075457982943876e-01,7.415777255779050847e+02
2.392685603454824061e+00,2.017813761646189974e+00,-2.990425248582964657e-01,2.799042007899037827e-04,3.458407599087784390e-01,9.382931793631226203e-01,7.435353119184853767e+02
2.454425398243596845e+00,2.293566593699226885e+00,-5.637063843780262262e-01,2.115749720594240738e-04,3.006935467322450761e-01,9.537207904778076673e-01,7.454928982590656688e+02
2.514334757670642961e+00,2.582751254752764680e+00,-8.142211967589604305e-01,1.541618107834754768e-04,2.624784199483651825e-01,9.649378504834110748e-01,7.474504845996459608e+02
2.571291908615451316e+00,2.884980940036330654e+00,-1.049198927430174511e+00,1.054622287958782945e-04,2.298655620149091805e-01,9.732223858282793572e-01,7.494080709402262528e+02
