4.998441373266972576e+00,7.351300705135466629e+00,4.454656781487798867e+00,-6.375325450900627411e-01,3.891644644539127285e-02,-7.694399028819927100e-01,9.379690134379380595e+01
5.043569733971625446e+00,7.259168363672573676e+00,4.821336447551937354e+00,-5.964730314219799379e-01,3.692871211915210033e-02,-8.017831334017289091e-01,9.557624216402328443e+01
5.086446237512222801e+00,7.156733183665732412e+00,5.177074720204718261e+00,-5.611882557937344362e-01,3.520383139523674404e-02,-8.269391947503043072e-01,9.735558298425276291e+01
5.127015801062289491e+00,7.042903619915426461e+00,5.519961643501432924e+00,-5.307454419029626891e-01,3.370436074077506200e-02,-8.468608456920679872e-01,9.913492380448224139e+01
5.165200225109880527e+00,6.916521309707089671e+00,5.848011652086092305e+00,-5.043333274951787848e-01,3.239554784109827112e-02,-8.629011665641180828e-01,1.009142646247117199e+02
5.200897142309152343e+00,6.776354420956739233e+00,6.159151889357802112e+00,-4.812756672987542061e-01,3.124731043835776365e-02,-8.760121789430258543e-01,1.026936054449411984e+02
5.233978765375733921e+00,6.621090575551795254e+00,6.451210012070072608e+00,-4.610189325391577664e-01,3.023440428366734600e-02,-8.868750896479544732e-01,1.044729462651706768e+02
5.264290422868223018e+00,6.449329307769078312e+00,6.721901409612843992e+00,-4.431129674748509051e-01,2.933593081613555809e-02,-8.959856590474999383e-01,1.062522870854001553e+02
5.291528364945981444e+00,6.260615402913735750e+00,6.969761581958980656e+00,-4.207885023083227649e-01,2.918253089768698197e-02,-9.066892611118343437e-01,1.080316279056296338e+02
5.315128273024008365e+00,6.056479150572268821e+00,7.195083342630110401e+00,-3.979701455141357869e-01,2.900936949084581898e-02,-9.169395943906016866e-01,1.098109687258591123e+02
5.324746880068059518e+00,5.949615831946860389e+00,7.295278302677109750e+00,-3.746899840017940964e-01,2.881621559353105683e-02,-9.267022399927619114e-01,1.106861057964308372e+02
5.339716476302948323e+00,5.721161856047393357e+00,7.477972395032480790e+00,-3.509836775747289250e-01,2.860294702437944300e-02,-9.359446188197457772e-01,1.124654466166603157e+02
5.349249595182647532e+00,5.483636625831598721e+00,7.640270746687226833e+00,-3.268902454501514954e-01,2.836955630992848976e-02,-9.446364039694412629e-01,1.142447874368897942e+02
5.352624093995200560e+00,5.239343473853625532e+00,7.782908550255414504e+00,-3.024517889383820379e-01,2.811615493536166396e-02,-9.527499132509134050e-01,1.160241282571192727e+02
5.349100407138209334e+00,4.990551832209346728e+00,7.906505327816774731e+00,-2.777131536873655993e-01,2.784297577447698846e-02,-9.602604714185831725e-01,1.178034690773487512e+02
5.337916926730222222e+00,4.739510817115959007e+00,8.011568575795172009e+00,-2.527215370296855834e-01,2.755037356486788117e-02,-9.671467322168800784e-01,1.195828098975782297e+02
5.318285365582705815e+00,4.488462732070217953e+00,8.098496750748367390e+00,-2.275260479770455924e-01,2.723882335306970423e-02,-9.733909512597122005e-01,1.213621507178077081e+02
5.289386074645047842e+00,4.239656569695993582e+00,8.167581613635650939e+00,-2.021772291761465279e-01,2.690891689886678456e-02,-9.789792021253493903e-01,1.231414915380371866e+02
5.250363287435621196e+00,3.995361592615610746e+00,8.219009946355605223e+00,-1.767265515655710717e-01,2.656135709479195972e-02,-9.839015297686168893e-01,1.249208323582666651e+02
5.200320264213051047e+00,3.757881074375527319e+00,8.252864650652940171e+00,-1.512258934701751212e-01,2.619695052252335107e-02,-9.881520373543070113e-01,1.267001731784961436e+02
5.138314308729061253e+00,3.529566282631079410e+00,8.269125235859634770e+00,-1.257270163785752515e-01,2.581659832882997677e-02,-9.917289047936785895e-01,1.284795139987256221e+02
5.063351630341933252e+00,3.312830788454726338e+00,8.267667698339961291e+00,-1.002810496432365028e-01,2.542128565666171638e-02,-9.946343395027205103e-01,1.302588548189550863e+02
4.974382024061573482e+00,3.110165187789199148e+00,8.248263791930154909e+00,-7.493799582785760915e-02,2.501206990918967282e-02,-9.968744620764250497e-01,1.320381956391845506e+02
4.870293340746583155e+00,2.924152323735096815e+00,8.210579685080507062e+00,-4.974626744248342169e-02,2.459006815410325758e-02,-9.984591315741058182e-01,1.338175364594140149e+02
4.749905719182398123e+00,2.757483101558282801e+00,8.154173996799306323e+00,-2.475226442112345854e-02,2.415644399117028440e-02,-9.994017168384934369e-01,1.355968772796434791e+02
4.611965551139335595e+00,2.612972992046290521e+00,8.078495199843395369e+00,0.000000000000000000e+00,2.371239420780988857e-02,-9.997188216498343882e-01,1.373762180998729434e+02
4.551646434397279783e+00,2.566424770715040715e+00,8.041709076105144405e+00,3.548652857625562197e-06,1.580925078491907110e-02,-9.998750259792604789e-01,1.380636527005298149e+02
4.377697625538387705e+00,2.470055532537796861e+00,7.927415550095687991e+00,7.097305770121656985e-06,7.904625453571600610e-03,-9.999687579350001743e-01,1.398429935207592791e+02
4.186898152289597164e+00,2.396697038128341450e+00,7.795047318833534078e+00,1.064529351364108455e-05,0.000000000000000000e+00,-9.999999999433388798e-01,1.416223343409887434e+02
3.980373702408629200e+00,2.344841766650200388e+00,7.645714869533552616e+00,4.646552300735239810e-02,-1.832224386849710257e-02,-9.987518463318485473e-01,1.434016751612182077e+02
3.889053655943868648e+00,2.331680272996080383e+00,7.577437974337952298e+00,9.739440744332089617e-02,-3.840909046145143252e-02,-9.945044349668273886e-01,1.441366270391131081e+02
3.654923915126621292e+00,2.318662502775405532e+00,7.397062742886379993e+00,1.529437689959654567e-01,-6.031831270702125297e-02,-9.863923685215162385e-01,1.459159678593425724e+02
3.409826276150744295e+00,2.323279207415732905e+00,7.202571546555026849e+00,2.130755375460118561e-01,-8.403489959470858417e-02,-9.734150969394225195e-01,1.476953086795720367e+02
3.156044106763709500e+00,2.343833577794875112e+00,6.994988730814805322e+00,2.774819309199846318e-01,-1.094374635523364947e-01,-9.544774589188305125e-01,1.494746494998015010e+02
2.895795298718187194e+00,2.378704189434741600e+00,6.775261618089830407e+00,3.454975353358592516e-01,-1.362635637974139446e-01,-9.284738522209845524e-01,1.512539903200309652e+02
2.631246033470407308e+00,2.426335904809874933e+00,6.544266081215645237e+00,4.160313683312910626e-01,-1.640829107490947847e-01,-8.944242276260734315e-01,1.530333311402604295e+02
2.364524165817814882e+00,2.485231054084855451e+00,6.302811696533024310e+00,4.875519663167559026e-01,-1.922914836579325826e-01,-8.516554851894607703e-01,1.548126719604898938e+02
2.097732307090689918e+00,2.553940844985010727e+00,6.051646506935024483e+00,5.581596622704090294e-01,-2.201400367818713288e-01,-7.999975972588038164e-01,1.565920127807193580e+02
1.832960687318110571e+00,2.631056953186264202e+00,5.791461422890010979e+00,6.257628463686789599e-01,-2.468036175789986297e-01,-7.399383990944707890e-01,1.583713536009488223e+02
1.572299874071096282e+00,2.715203245020203049e+00,5.522894287333475205e+00,6.883376271329572083e-01,-2.714839792907545735e-01,-6.726721044174694963e-01,1.601506944211782866e+02
1.317853424431645326e+00,2.805027584428120502e+00,5.246533628343646782e+00,7.442079148899179986e-01,-2.935200488954875508e-01,-6.000004669261443935e-01,1.619300352414077508e+02
1.071750545737083726e+00,2.899193675960242356e+00,4.962922121679387288e+00,7.922627913657541709e-01,-3.124736606922618454e-01,-5.240991135185411043e-01,1.637093760616372151e+02
8.361588403963763350e-01,2.996372895198482933e+00,4.672559783552021173e+00,8.320484537032519778e-01,-3.281658211459893559e-01,-4.472164627130869041e-01,1.654887168818666794e+02
6.132972101641570584e-01,3.095236057276124164e+00,4.375906912415218564e+00,8.637230811336843450e-01,-3.406589090522825769e-01,-3.713945971608140217e-01,1.672680577020961437e+02
4.054489957891602159e-01,3.194445073169066340e+00,4.073386797080683408e+00,8.879128386975786436e-01,-3.501998828525228480e-01,-2.982797896708505592e-01,1.690473985223256079e+02
2.149754289255909612e-01,3.292644442131381410e+00,3.765388207093486983e+00,9.055294316399189469e-01,-3.571483227056918563e-01,-2.290448078922474873e-01,1.708267393425550722e+02
4.432947460939209300e-02,3.388452527031268868e+00,3.452267680018097362e+00,9.176013599443654245e-01,-3.619098756297556840e-01,-1.644049456370038076e-01,1.726060801627845365e+02
-1.039297571963188060e-01,3.480522683890781455e+00,3.134397512444711431e+00,9.251474090396526462e-01,-3.648863587454041491e-01,-1.046910538142487579e-01,1.743854209830140007e+02
-2.275016231622987994e-01,3.567606980093977587e+00,2.812214572349155173e+00,9.290983500314587973e-01,-3.664448767177322930e-01,-4.994405165930050627e-02,1.761647618032434650e+02
-3.247099293252757590e-01,3.648484363337917369e+00,2.486177704636654440e+00,9.302592260359704435e-01,-3.669029467487537888e-01,-6.483715412145263470e-06,1.779441026234729293e+02
-3.948103978708731310e-01,3.722604500374345537e+00,2.157178141549377592e+00,9.194701788880107474e-01,-3.891854325414574878e-01,5.576100100579314128e-02,1.797234434437023936e+02
-4.143183664069642336e-01,3.753117458839342557e+00,2.008717520070894214e+00,9.036362049023836107e-01,-4.120371219801130525e-01,1.169060276459811254e-01,1.805230547604387255e+02
-4.317558506557547249e-01,3.815832322823109468e+00,1.678846768463732486e+00,8.816076594897633845e-01,-4.349392987159220181e-01,1.832914104956459844e-01,1.823023955806681897e+02
-4.238551222658134554e-01,3.874659283783869590e+00,1.351510694516988353e+00,8.522163465915122416e-01,-4.571799284409704955e-01,2.543890949567702009e-01,1.840817364008976540e+02
-3.913180097493421106e-01,3.931082913147967428e+00,1.028955884134332477e+00,8.144283124527512685e-01,-4.778623658015513920e-01,3.291718141425662436e-01,1.858610772211271183e+02
-3.346876217754370941e-01,3.986578784015266663e+00,7.134570531597880239e-01,7.675543060499953052e-01,-4.959617163743267887e-01,4.060570934673375931e-01,1.876404180413565825e+02
-2.543516172354119420e-01,4.042620882629385903e+00,4.073304303820824979e-01,7.114819222684131139e-01,-5.104390692920863781e-01,4.829548952288115760e-01,1.894197588615860468e+02
-1.505444899732214237e-01,4.100689033695261720e+00,1.129473847851440310e-01,6.468583792022429835e-01,-5.204024989065458850e-01,5.574544612680660816e-01,1.911990996818155111e+02
-2.334888148891515330e-02,4.162276375264844397e+00,-1.672516227874940031e-01,5.751389519834803066e-01,-5.252751221863528608e-01,6.271373309917502858e-01,1.929784405020449753e+02
1.273040711571160610e-01,4.228896919292645329e+00,-4.307426814809103277e-01,4.984483073354559757e-01,-5.249125891861208260e-01,6.899391702377403179e-01,1.947577813222744396e+02
3.003046703553126084e-01,4.302251417149096646e+00,-6.751478326125150975e-01,4.192767672962601777e-01,-5.196237188917889327e-01,7.444448825605994857e-01,1.965371221425039039e+02
4.918572427755352194e-01,4.384368780363590012e+00,-8.992805760906459334e-01,3.401076388993059529e-01,-5.100877489110808849e-01,7.900235960863228879e-01,1.983164629627333682e+02
6.966188227775028663e-01,4.477442523853325973e+00,-1.103709884027926247e+00,2.630946251750787557e-01,-4.972049041889933796e-01,8.267820156815209875e-01,2.000958037829628324e+02
9.091713727084521635e-01,4.583735346913623054e+00,-1.289704051368696147e+00,1.898690940318169817e-01,-4.819360716193165639e-01,8.553872514853597675e-01,2.018751446031922967e+02
1.124162586643410622e+00,4.705633219152190350e+00,-1.458422912194225596e+00,1.214907205274096402e-01,-4.651761489830080198e-01,8.768415793306504336e-01,2.036544854234217610e+02
1.336275188533610381e+00,4.845659067753400606e+00,-1.610924663455619577e+00,5.850494450890785653e-02,-4.476794806191043974e-01,8.922781259790124597e-01,2.054338262436512252e+02
1.455120962549922181e+00,4.939129396732105270e+00,-1.690698859782229002e+00,1.054433382684529484e-03,-4.300331969161960144e-01,9.028124598831572811e-01,2.064690383498061692e+02
1.647872088370761601e+00,5.121779234482279008e+00,-1.812919101433071889e+00,5.405130213608015351e-04,-2.204392865093496023e-01,9.754005478822136421e-01,2.082483791700356335e+02
1.826364109365554267e+00,5.326567875881316638e+00,-1.920563542925631140e+00,-0.000000000000000000e+00,0.000000000000000000e+00,1.000000000000000000e+00,2.100277199902650977e+02
1.914982778218325521e+00,5.450446212273623914e+00,-1.971672300198595185e+00,0.000000000000000000e+00,2.095770025616489236e-03,9.999978038715884310e-01,2.110004795717728712e+02
2.060612124846429527e+00,5.697124513653834654e+00,-2.051779492336776922e+00,0.000000000000000000e+00,4.191576858284886548e-03,9.999912153031350615e-01,2.127798203920023354e+02
2.191106449606087914e+00,5.961037283807495868e+00,-2.119733491820482207e+00,0.000000000000000000e+00,6.287392881251038443e-03,9.999802341500340086e-01,2.145591612122317997e+02
2.307674041654605990e+00,6.239303094890707335e+00,-2.176907300131423639e+00,0.000000000000000000e+00,8.383190476306321207e-03,9.999648604413247099e-01,2.163385020324612640e+02
2.411416643753714784e+00,6.529115727791628743e+00,-2.224610494805836947e+00,0.000000000000000000e+00,1.047894202560730945e-02,9.999450943796983626e-01,2.181178428526907283e+02
2.503336559309347731e+00,6.827728439902513102e+00,-2.264096934169665065e+00,0.000000000000000000e+00,1.257461991349544984e-02,9.999209363414844898e-01,2.198971836729201925e+02
2.584343038444612439e+00,7.132438528159239510e+00,-2.296572134256488873e+00,0.000000000000000000e+00,1.467019652831646516e-02,9.998923868766181888e-01,2.216765244931496568e+02
2.622080155471878005e+00,7.296902439230922077e+00,-2.310637892953751216e+00,0.000000000000000000e+00,1.488687201769666596e-02,9.998891843807135027e-01,2.226255488225049248e+02
2.684102116623870327e+00,7.606449413801150250e+00,-2.331281983038913097e+00,0.000000000000000000e+00,1.510354689877436291e-02,9.998859349301182364e-01,2.244048896427343891e+02
2.739972546062573677e+00,7.914317857316315319e+00,-2.346339980921381407e+00,0.000000000000000000e+00,1.532022114102458629e-02,9.998826385252371773e-01,2.261842304629638534e+02
2.792237921961797209e+00,8.217428766011053654e+00,-2.355962656253605569e+00,0.000000000000000000e+00,1.553689471392262142e-02,9.998792951664957629e-01,2.279635712831933176e+02
2.843397305212486348e+00,8.512653882974541730e+00,-2.360268800605765271e+00,0.000000000000000000e+00,1.575356758694400339e-02,9.998759048543391925e-01,2.297429121034227819e+02
2.895916694713188022e+00,8.796797536795775585e+00,-2.359345926360846502e+00,0.000000000000000000e+00,1.597023972956455873e-02,9.998724675892323166e-01,2.315222529236522462e+02
2.952243032225795094e+00,9.066577962974847082e+00,-2.353250781582301165e+00,0.000000000000000000e+00,1.618691111126041235e-02,9.998689833716596365e-01,2.333015937438817105e+02
3.014817935201057786e+00,9.318608000253366441e+00,-2.342009683883604421e+00,0.000000000000000000e+00,1.640358170150802569e-02,9.998654522021260815e-01,2.350809345641111747e+02
3.086091233442309179e+00,9.549375049675804306e+00,-2.325618675264476742e+00,0.000000000000000000e+00,1.662025146978418633e-02,9.998618740811558991e-01,2.368602753843406390e+02
3.097445677445751500e+00,9.578191812877228983e+00,-2.322625271172151340e+00,0.000000000000000000e+00,1.683692038556608081e-02,9.998582490092934316e-01,2.371082621691142833e+02
3.190485171384467744e+00,9.758696972890332333e+00,-2.296031073665813160e+00,0.000000000000000000e+00,1.705358841833126693e-02,9.998545769871028943e-01,2.388876029893437476e+02
3.296988746385988822e+00,9.909891051388054706e+00,-2.263995185093549356e+00,0.000000000000000000e+00,2.081992505208923264e-03,9.999978326512554139e-01,2.406669438095732119e+02
3.418154696997908193e+00,1.002851937110367508e+01,-2.225882932650788071e+00,0.000000000000000000e+00,-1.289342773041874703e-02,9.999168763059059772e-01,2.424462846298026761e+02
3.521873582871074326e+00,1.009171847508270758e+01,-2.191711669301632082e+00,0.000000000000000000e+00,-2.786260007479053613e-02,9.996117623943168162e-01,2.437986232411796550e+02
3.673380798252810830e+00,1.013817346081162363e+01,-2.139148517451727294e+00,-5.325957667635326104e-02,-1.557234507508109891e-02,9.984592728604999579e-01,2.455779640614091193e+02
3.838024036055554866e+00,1.014981690888193633e+01,-2.078110616393594512e+00,-1.073656343516595918e-01,-3.001088978384219841e-03,9.942150743301017002e-01,2.473573048816385835e+02
4.013121949657138643e+00,1.013002989664817299e+01,-2.007610224744855287e+00,-1.618249700406950431e-01,9.740657267244282047e-03,9.867714014235161590e-01,2.491366457018680478e+02
4.196082913374148404e+00,1.008202973054646101e+01,-1.926603929700272833e+00,-2.161150888306603846e-01,2.253320604706171570e-02,9.761078439419265118e-01,2.509159865220975121e+02
4.384388336392717633e+00,1.000888828993778823e+01,-1.833986508243462099e+00,-2.697082847558538998e-01,3.525309030884872519e-02,9.622965555158822237e-01,2.526953273423269763e+02
4.575576560892669065e+00,9.913549648133932024e+00,-1.728584424706125056e+00,-3.220969062596684140e-01,4.777893396817110144e-02,9.455002678195366661e-01,2.544746681625564406e+02
4.767227243099759981e+00,9.798847070339514076e+00,-1.609148926418540126e+00,-3.728170422110759219e-01,5.999715763324237755e-02,9.259631710348509293e-01,2.562540089827859333e+02
4.834558973116589442e+00,9.752307708907846262e+00,-1.561534027163183458e+00,-4.214681032439552277e-01,7.180690669145753380e-02,9.039957998239520620e-01,2.568839610938143210e+02
5.021815536402034041e+00,9.606217148496208225e+00,-1.411257587756124199e+00,-4.494224243272512687e-01,7.054972781204348065e-02,8.905291799921339901e-01,2.586633019140438137e+02
5.104454085360858429e+00,9.534825151924430031e+00,-1.336087430212816285e+00,-4.769433337063342382e-01,6.922451259086716269e-02,8.762037567196601096e-01,2.594657386486651376e+02
5.282761544950740351e+00,9.366725319924032789e+00,-1.152701740373324846e+00,-5.140455845020140968e-01,1.101559719667152687e-01,8.506602135365511907e-01,2.612450794688946303e+02
5.455100101656068290e+00,9.191046157741800116e+00,-9.526787755566551441e-01,-5.495008361608202385e-01,1.509823022952139771e-01,8.217378994863240305e-01,2.630244202891241230e+02
5.620580865775225199e+00,9.010404623891183462e+00,-7.361430457524761328e-01,-5.828897650331638092e-01,1.912408848682875251e-01,7.897255509190376221e-01,2.648037611093536157e+02
5.725740754940722432e+00,8.888460730071628291e+00,-5.809692191626679714e-01,-6.138622846817090029e-01,2.304881247402780775e-01,7.550154434175916363e-01,2.659891137915483910e+02
5.875265043544330545e+00,8.704708550361720754e+00,-3.322555692995299848e-01,-6.547647849537766573e-01,2.292552710836976426e-01,7.202257264669006398e-01,2.677684546117778837e+02
6.015920658205992311e+00,8.520867296461220874e+00,-6.923619673978456679e-02,-6.969898824666851400e-01,2.271705400986182288e-01,6.801460500880517346e-01,2.695477954320073763e+02
6.147387716838990990e+00,8.337243390079969174e+00,2.062525532567259789e-01,-7.399584967083188136e-01,2.240511111189794624e-01,6.342416911205976948e-01,2.713271362522368690e+02
6.269294353489592631e+00,8.154147441738603064e+00,4.924476974607882029e-01,-7.828809684791855350e-01,2.197070143114980001e-01,5.820878087156780012e-01,2.731064770724663617e+02
6.381214554185552501e+00,7.971896531300857625e+00,7.876492423776436658e-01,-8.247535533043807154e-01,2.139571102848753514e-01,5.234538482715965779e-01,2.748858178926958544e+02
6.482665690488989441e+00,7.790816546123691566e+00,1.090210182541983430e+00,-8.643883487444111724e-01,2.066514072808035007e-01,4.583971841359560373e-01,2.766651587129253471e+02
6.573105736653681141e+00,7.611244593239532286e+00,1.398526810560190237e+00,-9.004870757342632315e-01,1.976976670386312307e-01,3.873482398088802792e-01,2.784444995331548398e+02
6.651930154548555407e+00,7.433531502547902292e+00,1.711029281891337073e+00,-9.317599576669918227e-01,1.870875295576713004e-01,3.111617546749813057e-01,2.802238403533843325e+02
6.718468428680937521e+00,7.258044438670625098e+00,2.026172378856165857e+00,-9.570755812424732722e-01,1.749151781577150677e-01,2.311082262478702520e-01,2.820031811736138252e+02
6.771980231725427402e+00,7.085169639923140750e+00,2.342426419535082349e+00,-9.756112898335489447e-01,1.613814916891764539e-01,1.487905416667847924e-01,2.837825219938433179e+02
6.811651198927910933e+00,6.915315303778566403e+00,2.658268258068687828e+00,-9.869653833686166111e-01,1.467797680123756610e-01,6.599266424590506663e-02,2.855618628140728106e+02
6.836588287597589186e+00,6.748914639257578507e+00,2.972172323412356931e+00,-9.911995242587607891e-01,1.314647616690340914e-01,-1.550869267573172158e-02,2.873412036343023033e+02
6.845814695611371015e+00,6.586429107872779021e+00,3.282601643822687709e+00,-9.888013038052591019e-01,1.158123704306343454e-01,-9.412479188958233767e-02,2.891205444545317960e+02
6.838264310422273340e+00,6.428351876099425155e+00,3.587998804269660003e+00,-9.805825510146493063e-01,1.001799236066168719e-01,-1.685877918230592187e-01,2.908998852747612887e+02
6.812775657473425284e+00,6.275211503844575489e+00,3.886776783573236749e+00,-9.675458660833352598e-01,8.487554680551698261e-02,-2.380149965433123738e-01,2.926792260949907813e+02
6.768085314157610277e+00,6.127575895053693600e+00,4.177309617355758675e+00,-9.507537095495224300e-01,7.014082206891870952e-02,-3.019066889906857343e-01,2.944585669152202740e+02
6.702820752514153213e+00,5.986056538439191499e+00,4.457922831877158210e+00,-9.312241666756047032e-01,5.614641794387364299e-02,-3.600960026873355480e-01,2.962379077354497667e+02
6.615492570704762265e+00,5.851313068351954527e+00,4.726883592471705420e+00,-9.098631729495327836e-01,4.299740609639131350e-02,-4.126744837995083293e-01,2.980172485556792594e+02
6.504486069939994231e+00,5.724058178058588631e+00,4.982390508625609726e+00,-8.874313235737447680e-01,3.074407577672122124e-02,-4.599135220286383330e-01,2.997965893759087521e+02
6.447780252442290028e+00,5.674182834021561206e+00,5.083056312291757806e+00,-8.507380076179037465e-01,2.848093014659771813e-02,-5.248177579048790564e-01,3.005411582532050261e+02
6.288590338656637080e+00,5.563869682875343337e+00,5.307846575213849505e+00,-8.069514308629084365e-01,2.592473469042952047e-02,-5.900485542390010441e-01,3.023204990734345188e+02
6.107756171489287844e+00,5.463637012305567531e+00,5.516331616525944170e+00,-7.560226481321602465e-01,2.309084430449337769e-02,-6.541380346842258220e-01,3.040998398936640115e+02
5.907635655332590829e+00,5.374660691053883887e+00,5.707946866041977430e+00,-6.983347128240379176e-01,2.001372543241974541e-02,-7.154914951690789504e-01,3.058791807138935042e+02
5.690482189389514112e+00,5.298163833266303691e+00,5.882028502150700611e+00,-6.347362412190622472e-01,1.674643349361205902e-02,-7.725473843385534112e-01,3.076585215341229969e+02
5.458458480611908747e+00,5.235424847281946903e+00,6.037809546300287877e+00,-5.664973303807125937e-01,1.335671148156745112e-02,-8.239553221685773643e-01,3.094378623543524895e+02
5.213649886185466542e+00,5.187785697823112052e+00,6.174415350572481920e+00,-4.951875732267752017e-01,9.920204076751419631e-03,-8.687294497557066508e-01,3.112172031745819822e+02
4.958077366813144593e+00,5.156660434037409146e+00,6.290858451797760154e+00,-4.225021165155245506e-01,6.512300960497111046e-03,-9.063385413167102111e-01,3.129965439948114749e+02
4.693710130180198448e+00,5.143544036742903280e+00,6.386032761936039748e+00,-3.500785943974882852e-01,3.200568548579110946e-03,-9.367148627547471351e-01,3.147758848150409676e+02
4.422478042594331527e+00,5.150021639456766387e+00,6.458707060543023459e+00,-2.793467611515190185e-01,3.937469914031367576e-05,-9.601902860807274287e-01,3.165552256352704603e+02
4.277932567837391176e+00,5.164074258732631151e+00,6.484485782438040857e+00,-2.412197597089046353e-01,-2.934010579328840199e-02,-9.700268994816674262e-01,3.174860967397102627e+02
3.998410986458237115e+00,5.211105832850599917e+00,6.510272586475633005e+00,-2.020237478540441445e-01,-5.901412072848257612e-02,-9.776010120993379182e-01,3.192654375599397554e+02
3.717779120358485567e+00,5.277570569059178318e+00,6.512942738661990916e+00,-1.620264798998145850e-01,-8.876434828632563667e-02,-9.827859941434751168e-01,3.210447783801692481e+02
3.438250739011317947e+00,5.362408984076682650e+00,6.492850714302960569e+00,-1.215198593971383023e-01,-1.183657860815345714e-01,-9.855061970669692917e-01,3.228241192003987408e+02
3.162037667252708850e+00,5.464651699107968774e+00,6.450217070149554033e+00,-8.080949809411540341e-02,-1.475950991014428337e-01,-9.857410977224255744e-01,3.246034600206282335e+02
2.891363651964922177e+00,5.583413666018094190e+00,6.385129742016978582e+00,-4.020329242489091570e-02,-1.762389677811853073e-01,-9.835260654978194017e-01,3.263828008408577261e+02
2.628478252878895027e+00,5.717888776086924807e+00,6.297544562144932634e+00,-0.000000000000000000e+00,-2.041017182454783752e-01,-9.789496864544384724e-01,3.281621416610872188e+02
2.531207414115687282e+00,5.775066406597283653e+00,6.255342276162677351e+00,2.541123199549705572e-02,-2.526887291848937678e-01,-9.672138726421340982e-01,3.288450833014297245e+02
2.288302689889722075e+00,5.937045268609741910e+00,6.123679594959786421e+00,5.285495953822738624e-02,-3.044375032137511261e-01,-9.510647506290986763e-01,3.306244241216592172e+02
2.056843944411346214e+00,6.110048429940663439e+00,5.971437542548140520e+00,8.224326980869760273e-02,-3.590052381545170146e-01,-9.297049443499761923e-01,3.324037649418887099e+02
1.837600276781214959e+00,6.291461953991920097e+00,5.799862823034583670e+00,1.133677015723503212e-01,-4.158112562049266492e-01,-9.023573368979073139e-01,3.341831057621182026e+02
1.631391621708815132e+00,6.478714971651537091e+00,5.610088399075905841e+00,1.458754309812023142e-01,-4.740075429739018520e-01,-8.683531584786762236e-01,3.359624465823476953e+02
1.439093914329988344e+00,6.669264032523313901e+00,5.403140157527475118e+00,1.792587545193163878e-01,-5.324807207598206693e-01,-8.272427581715571243e-01,3.377417874025771880e+02
1.261644457246243523e+00,6.860577574244269172e+00,5.179942945125063147e+00,2.128671157877548570e-01,-5.899005994513553119e-01,-7.789126226882795434e-01,3.395211282228066807e+02
1.100047522259214317e+00,7.050120416227406039e+00,4.941326009710193645e+00,2.459479891688528264e-01,-6.448221841680553679e-01,-7.236808256604125855e-01,3.413004690430361734e+02
9.553802198836376380e-01,7.235338184037177101e+00,4.688027879011811727e+00,2.777154365016479276e-01,-6.958319625453467383e-01,-6.623382944002182970e-01,3.430798098632656661e+02
8.287986705254066777e-01,7.413641569916071816e+00,4.420700705686288146e+00,3.074349898788537594e-01,-7.417106247830130838e-01,-5.961116305543632254e-01,3.448591506834951588e+02
7.215445122075965223e-01,7.582390333723157738e+00,4.139914104178918031e+00,3.345054749432564423e-01,-7.815728357604153631e-01,-5.265453348330124683e-01,3.466384915037246515e+02
6.522653568660502499e-01,7.707329791677569375e+00,3.906367820574033090e+00,3.585175203307429670e-01,-8.149485929436633969e-01,-4.553284292409582878e-01,3.480550492027592782e+02
5.858113592106121148e-01,7.851138028275665093e+00,3.602075710241878781e+00,3.792761357399807021e-01,-8.417898383373243476e-01,-3.841086837474116389e-01,3.498343900229887709e+02
5.400313738890827331e-01,7.980941627565250052e+00,3.288891112927434968e+00,3.967869742476171080e-01,-8.624105524943846968e-01,-3.143376146975587759e-01,3.516137308432182635e+02
5.150564253105764934e-01,8.095744517461167078e+00,2.968846617607017624e+00,4.112163708539617879e-01,-8.773862000449135223e-01,-2.471731221481092977e-01,3.533930716634477562e+02
5.111323860635132998e-01,8.194460343102544897e+00,2.643934453839836607e+00,4.228397006206089936e-01,-8.874427551305595907e-01,-1.834446618066484236e-01,3.551724124836772489e+02
5.286206512725121209e-01,8.275905079652465801e+00,2.316118212807454224e+00,4.319909701717586370e-01,-8.933587243751428542e-01,-1.236688775435453164e-01,3.569517533039067416e+02
5.679994348638032209e-01,8.338789059316667363e+00,1.987344399863320232e+00,4.390216570551887521e-01,-8.958922234213534397e-01,-6.809631891416674521e-02,3.587310941241362343e+02
6.225168090939277032e-01,8.377317658238620623e+00,1.695804791604770045e+00,4.399281138679184688e-01,-8.977419900475356318e-01,2.285987607372895816e-02,3.603143367163554558e+02
7.046045305140972159e-01,8.400630646982163441e+00,1.371674767651259064e+00,4.362469047841031067e-01,-8.902299082675617647e-01,1.310700137034335466e-01,3.620936775365849485e+02
8.059052194270125424e-01,8.403811693249361170e+00,1.053669342582832513e+00,4.252709299827535649e-01,-8.678317183127511880e-01,2.569294549130975991e-01,3.638730183568144412e+02
9.248791377789773449e-01,8.386634078921597180e+00,7.444546850282066641e-01,4.038265792711494551e-01,-8.240711731776596549e-01,3.972792411034805626e-01,3.656523591770439339e+02
1.060089169289287536e+00,8.348763169048055488e+00,4.467486829802271853e-01,3.693402150975038656e-01,-7.536963636876532480e-01,5.436263393873942418e-01,3.674316999972734266e+02
1.210191369355745561e+00,8.289753614294470552e+00,1.633369341570497513e-01,3.215773323567307496e-01,-6.562287455690656301e-01,6.826066603858909065e-01,3.692110408175029193e+02
1.373379591954136059e+00,8.209259234697622531e+00,-1.029619093489630433e-01,2.638144372558671180e-01,-5.383545412068382330e-01,8.003601256043088030e-01,3.709903816377324119e+02
1.546825764775397349e+00,8.107250179144536162e+00,-3.501535246829430292e-01,2.019132866941115156e-01,-4.120355805863150089e-01,8.885143245819281388e-01,3.727697224579619046e+02
1.727208247255158646e+00,7.983808625948422666e+00,-5.778280635326351611e-01,1.417569739465371070e-01,-2.892772338984661018e-01,9.466908905686020059e-01,3.745490632781913973e+02
1.911242895641990902e+00,7.838918186752051653e+00,-7.862837740297403677e-01,8.724937905816693151e-02,-1.780459777790132092e-01,9.801465072379126342e-01,3.763284040984208900e+02
2.095666712222798100e+00,7.672463060923547573e+00,-9.757058327189079838e-01,3.999346398276860948e-02,-8.161290632033738057e-02,9.958613640264426525e-01,3.781077449186503827e+02
2.277217629957996703e+00,7.484227258482786915e+00,-1.146167434014984998e+00,-0.000000000000000000e+00,0.000000000000000000e+00,1.000000000000000000e+00,3.798870857388798754e+02
2.453431830289930726e+00,7.274736308882213009e+00,-1.298001304773493292e+00,-4.636159474102861169e-08,-1.156627263299005991e-07,9.999999999999922284e-01,3.816664265591093681e+02
2.535629125283420660e+00,7.164265364102496925e+00,-1.362709300166565107e+00,-9.272318948205505285e-08,-2.313254526597957984e-07,9.999999999999689138e-01,3.825257812889203706e+02
2.699622389220413421e+00,6.918561163230683597e+00,-1.479652813889977381e+00,-1.390847842230772059e-07,-3.469881789896802509e-07,9.999999999999302780e-01,3.843051221091498633e+02
2.857032809257417760e+00,6.658166325259620599e+00,-1.580462526706271076e+00,-1.854463789640928474e-07,-4.626509053195485569e-07,9.999999999998758771e-01,3.860844629293793560e+02
3.007768285341692494e+00,6.385735295570298398e+00,-1.666174589625264879e+00,-2.318079737050998333e-07,-5.783136316493952106e-07,9.999999999998059330e-01,3.878638037496088486e+02
3.151719017092774688e+00,6.103852200333822253e+00,-1.737736328488702631e+00,-2.781695684460960724e-07,-6.939763579792150240e-07,9.999999999997206679e-01,3.896431445698383413e+02
3.288756328014354580e+00,5.815046279850440314e+00,-1.796011817442361824e+00,-3.245311631870792884e-07,-8.096390843090023324e-07,9.999999999996196376e-01,3.914224853900678340e+02
3.418731505359274614e+00,5.521807007107589094e+00,-1.841786962607628197e+00,-3.708927579280475226e-07,-9.253018106387523714e-07,9.999999999995032862e-01,3.932018262102973267e+02
3.541474646497684731e+00,5.226598980862769750e+00,-1.875774125861688679e+00,-4.172543526689983396e-07,-1.040964536968458894e-06,9.999999999993711697e-01,3.949811670305268194e+02
3.656793503418259927e+00,4.931876681297477916e+00,-1.898616315929482434e+00,-4.636159474099297807e-07,-1.156627263298117030e-06,9.999999999992237321e-01,3.967605078507563121e+02
3.764070227044149508e+00,4.639862257497786580e+00,-1.911254469353198981e+00,-4.172543526689983396e-07,-1.040964536968458894e-06,9.999999999993711697e-01,3.985398486709858048e+02
3.822990169471122357e+00,4.467309536276999005e+00,-1.913567935689472366e+00,-3.708927579280475226e-07,-9.253018106387522656e-07,9.999999999995032862e-01,3.996077644135253877e+02
3.910474015604528120e+00,4.185780928665284506e+00,-1.910172303574792174e+00,-3.245311631870792884e-07,-8.096390843090024383e-07,9.999999999996196376e-01,4.013871052337548804e+02
3.985252060349411707e+00,3.911715911737462914e+00,-1.901204295042977943e+00,-2.781695684460960724e-07,-6.939763579792150240e-07,9.999999999997206679e-01,4.031664460539843731e+02
4.045317294304187072e+00,3.646795282517810044e+00,-1.888508174912335802e+00,-2.318079737050998333e-07,-5.783136316493952106e-07,9.999999999998059330e-01,4.049457868742138658e+02
4.088589705943620700e+00,3.392771025497855586e+00,-1.873906274092362212e+00,-1.854463789640928474e-07,-4.626509053195485569e-07,9.999999999998758771e-01,4.067251276944433585e+02
4.112904568845969777e+00,3.151477331984124497e+00,-1.859209711041514002e+00,-1.390847842230772324e-07,-3.469881789896803568e-07,9.999999999999302780e-01,4.085044685146728511e+02
4.116000320372568133e+00,2.924842205222008662e+00,-1.846229047258027167e+00,-9.272318948205502638e-08,-2.313254526597956925e-07,9.999999999999689138e-01,4.102838093349023438e+02
4.095505965007405713e+00,2.714899723614988325e+00,-1.836784939493845803e+00,-4.636159474102859845e-08,-1.156627263299005462e-07,9.999999999999922284e-01,4.120631501551318365e+02
4.048927933364163678e+00,2.523803038818166478e+00,-1.832718851362763468e+00,-0.000000000000000000e+00,0.000000000000000000e+00,1.000000000000000000e+00,4.138424909753613292e+02
3.990080577127710360e+00,2.388069936883863154e+00,-1.834737636177373066e+00,0.000000000000000000e+00,1.729830503911109277e-02,9.998503731272864181e-01,4.152597849002023054e+02
3.890285768652620213e+00,2.239522750238547744e+00,-1.843790823023714998e+00,0.000000000000000000e+00,3.462264512581521986e-02,9.994004564960393688e-01,4.170391257204317981e+02
3.767374451004719127e+00,2.113724593909400706e+00,-1.858582910508993047e+00,0.000000000000000000e+00,5.195744151319788007e-02,9.986492999403757675e-01,4.188184665406612908e+02
3.624219109346216605e+00,2.011633747975918762e+00,-1.878324267348350674e+00,0.000000000000000000e+00,6.928703075216774421e-02,9.975967659177470415e-01,4.205978073608907835e+02
3.463580505344146854e+00,1.934325088242008883e+00,-1.902254380641759557e+00,0.000000000000000000e+00,8.659573518853123930e-02,9.962435338044396405e-01,4.223771481811202761e+02
3.288125080146753199e+00,1.882997303826310365e+00,-1.929637381490434622e+00,0.000000000000000000e+00,1.038679337792971780e-01,9.945910980560903614e-01,4.241564890013497688e+02
3.100441859974242931e+00,1.858980703404810697e+00,-1.959757715603044126e+00,0.000000000000000000e+00,1.210881324833222999e-01,9.926417602396654383e-01,4.259358298215792615e+02
2.927187752994277581e+00,1.863075014605619639e+00,-1.987992898409347564e+00,-0.000000000000000000e+00,1.382410334876689184e-01,9.903986150334931349e-01,4.274973133546901636e+02
2.722372329423227377e+00,1.896898303457791535e+00,-2.021241713489426939e+00,8.305264551003084875e-03,1.186562009932748546e-01,9.929006639873806384e-01,4.292766541749196563e+02
2.512441205170546255e+00,1.958518887342004744e+00,-2.053925931071450606e+00,1.662587695577124117e-02,9.897153113137863167e-02,9.949513637565216007e-01,4.310559949951491490e+02
2.299616032281994737e+00,2.045674999868746458e+00,-2.084063322182765798e+00,2.495035031385888988e-02,7.921384652437903073e-02,9.965453559863834965e-01,4.328353358153786417e+02
2.086082885371685514e+00,2.156237407520783300e+00,-2.109656673883641087e+00,3.326713384072299551e-02,5.941038505206697184e-02,9.976791588251148202e-01,4.346146766356081343e+02
1.874006302709536165e+00,2.288197057980379867e+00,-2.128682038912612207e+00,4.156469272238267482e-02,3.958861276967659548e-02,9.983511997578139452e-01,4.363940174558376270e+02
1.756488834188637771e+00,2.373429084089070162e+00,-2.134665889017500540e+00,4.983158797008521018e-02,1.977603376241890074e-02,9.985618264929855270e-01,4.373956810170663516e+02
1.552905620234264150e+00,2.542759987130891464e+00,-2.135241615745334443e+00,5.805655498841086337e-02,0.000000000000000000e+00,9.983132957257844220e-01,4.391750218372958443e+02
1.356206191970909192e+00,2.728103898450709330e+00,-2.123748994977305848e+00,1.524850099393506853e-01,6.887131615309124988e-02,9.859031714905562849e-01,4.409543626575253370e+02
1.167198359488357928e+00,2.926234442018231796e+00,-2.097759025334836380e+00,2.460943780999011732e-01,1.377426319145569067e-01,9.594084241973663829e-01,4.427337034777548297e+02
9.862424430274586706e-01,3.133462948898489753e+00,-2.054695130161027450e+00,3.349777391928526749e-01,2.037395048402665110e-01,9.199348500914007465e-01,4.445130442979843224e+02
8.137159026847723409e-01,3.346151449675731637e+00,-1.991880280447921647e+00,3.422682464456715534e-01,1.362854891376873989e-01,9.296659146841441679e-01,4.462923851182138151e+02
6.500159138112088231e-01,3.560691008394656354e+00,-1.906521244869582521e+00,3.479738705423595646e-01,6.786751759596236500e-02,9.350444831531443679e-01,4.480717259384433078e+02
5.908357533254303684e-01,3.642172615709167616e+00,-1.864351528561720706e+00,3.520140075390099099e-01,-5.478630810373027321e-04,9.359945717483463268e-01,4.487521917509060358e+02
4.454469811345954655e-01,3.851996216569511411e+00,-1.728481068877748328e+00,3.684826898601209488e-01,-8.626150131439640212e-02,9.256238224378391388e-01,4.505315325711355285e+02
3.101525821631823110e-01,4.058275415627732308e+00,-1.568318339675912165e+00,3.826311524849165258e-01,-1.749850327739629341e-01,9.071789456624087533e-01,4.523108733913650212e+02
1.854758067433627255e-01,4.260891686899943132e+00,-1.385919741588813814e+00,3.938086230289675194e-01,-2.645486098981890133e-01,8.803004040831541310e-01,4.540902142115945139e+02
7.200185560229875603e-02,4.459700196790651106e+00,-1.183210853257028239e+00,4.015465633664388467e-01,-3.525392200144280563e-01,8.452670913978735934e-01,4.558695550318240066e+02
-2.961887015084061284e-02,4.654528415928760765e+00,-9.619977602363287694e-01,4.056381599286836837e-01,-4.366051199045941078e-01,8.030153500916197284e-01,4.576488958520534993e+02
-1.186671441968891877e-01,4.845174538483585813e+00,-7.239776808835453048e-01,4.061650886342988431e-01,-5.147601883282860724e-01,7.550177940200613058e-01,4.594282366722829920e+02
-1.943508954719104231e-01,5.031405696396066496e+00,-4.707489517349649488e-01,4.034638481846201108e-01,-5.856005661191168166e-01,7.030568257040307190e-01,4.612075774925124847e+02
-2.063143945063101448e-01,5.066435293535064943e+00,-4.192091074167375031e-01,4.204767192088754713e-01,-6.231509517439740575e-01,6.594560030388075811e-01,4.615510208744721581e+02
-2.543147339133809970e-01,5.243150861743078650e+00,-1.395943199988442240e-01,4.373241806037932999e-01,-6.615902163374149936e-01,6.091354091709274554e-01,4.633303616947016508e+02
-2.878926846269425077e-01,5.415461735704418800e+00,1.510659720211323109e-01,4.535007285847291736e-01,-7.001351909943133167e-01,5.514959687109926012e-01,4.651097025149311435e+02
-3.068220851806462979e-01,5.583744096456335626e+00,4.508293076920656395e-01,4.683757345363734892e-01,-7.377423681652096610e-01,4.861690750258605975e-01,4.668890433351606362e+02
-3.107867364949021272e-01,5.748348031348499809e+00,7.578067826784996575e-01,4.812195130345297001e-01,-7.731288989146974933e-01,4.131579430892713400e-01,4.686683841553901289e+02
-2.993787365727521577e-01,5.909598844138629126e+00,1.070151936120669056e+00,4.912627452472358991e-01,-8.048527314303323132e-01,3.329759688645452798e-01,4.704477249756196215e+02
-2.720962602508076866e-01,6.067798202289067078e+00,1.386049887198613995e+00,4.977894855266835616e-01,-8.314598540029267681e-01,2.467390104554028629e-01,4.722270657958491142e+02
-2.288741779408858534e-01,6.223226611996866886e+00,1.703966105820276411e+00,5.002497792643690877e-01,-8.516827179174446538e-01,1.561624357734739954e-01,4.740064066160786069e+02
-1.706172241441083759e-01,6.376151711844523007e+00,2.022896832734625505e+00,4.983631121572462686e-01,-8.646448348966714326e-01,6.343120625884220154e-02,4.757857474363080996e+02
-9.867203128344645413e-02,6.526836511464860102e+00,2.342103725720688256e+00,4.921784825320922319e-01,-8.700095686074476031e-01,-2.904637436738020245e-02,4.775650882565375923e+02
-1.430174510904114356e-02,6.675541702728263083e+00,2.660850067313069278e+00,4.820682341412282912e-01,-8.680225055109372923e-01,-1.189417822233747452e-01,4.793444290767670850e+02
8.130645709872394433e-02,6.822526534423915656e+00,2.978396430408511986e+00,4.686573786071279724e-01,-8.594355250258596257e-01,-2.042812761870753668e-01,4.811237698969965777e+02
1.870343070737633950e-01,6.968049739372921714e+00,3.293996327931794532e+00,4.527139061384012342e-01,-8.453450732615948038e-01,-2.836226829808575212e-01,4.829031107172260704e+02
3.018258033758957626e-01,7.112370515791783809e+00,3.606891820965694162e+00,4.350350347871139722e-01,-8.270015235632154349e-01,-3.561081275847197136e-01,4.846824515374555631e+02
4.246809474783610483e-01,7.255749565378235566e+00,3.916309059506266177e+00,4.163571398183526506e-01,-8.056417625395105864e-01,-4.214120104772900444e-01,4.864617923576850558e+02
5.546498214137652871e-01,7.398450191247426311e+00,4.221453729607554273e+00,3.973014515213138531e-01,-7.823738670794297967e-01,-4.796276563442059548e-01,4.882411331779145485e+02
6.908269723213565916e-01,7.540739459501136110e+00,4.521506380128928804e+00,3.783535305516018687e-01,-7.581180222335275332e-01,-5.311362069035234779e-01,4.900204739981440412e+02
8.323460710937726770e-01,7.682889428869128956e+00,4.815617601590488128e+00,3.558658693795518912e-01,-7.130588385976367460e-01,-6.040749752377804205e-01,4.917998148183735339e+02
9.783748139892244344e-01,7.825178453531804301e+00,5.102903028772248994e+00,3.283126516030204223e-01,-6.578496512102209870e-01,-6.778234572512109590e-01,4.935791556386030265e+02
1.128110037563958779e+00,7.967892564919918819e+00,5.382438137655867649e+00,2.955406217044158068e-01,-5.921833775135371125e-01,-7.496496437131328072e-01,4.953584964588325192e+02
1.280773018597743063e+00,8.111326938995787827e+00,5.653252806097350813e+00,2.578775272028709931e-01,-5.167167347863552695e-01,-8.163963479557341252e-01,4.971378372790620119e+02
1.435604931840118947e+00,8.255787456259113810e+00,5.914325606228689303e+00,2.162100529025439144e-01,-4.332263992740187919e-01,-8.749674851078453885e-01,4.989171780992915046e+02
1.591862439406071639e+00,8.401592362491509647e+00,6.164577795009156702e+00,1.719183521226364530e-01,-3.444778245014542550e-01,-9.229187985029790875e-01,5.006965189195209973e+02
1.748813386497991562e+00,8.549074039068480957e+00,6.402866967571794632e+00,1.266602673747364016e-01,-2.537928779406718460e-01,-9.589297950189844544e-01,5.024758597397504900e+02
1.905474463342149205e+00,8.698773091753858822e+00,6.628022355539940236e+00,8.207816375486201577e-02,-1.644624145139542415e-01,-9.829625065315921173e-01,5.042552005599799827e+02
2.011788719911582479e+00,8.803690483406818146e+00,6.772804717393129614e+00,3.954065266256696909e-02,-7.922876086464800127e-02,-9.960719553520572811e-01,5.054767443781296947e+02
2.163269925512206537e+00,8.960534545485387525e+00,6.968288300961195780e+00,-0.000000000000000000e+00,-0.000000000000000000e+00,-1.000000000000000000e+00,5.072560851983591874e+02
2.310728170973006979e+00,9.121036396326129392e+00,7.147259835059367461e+00,0.000000000000000000e+00,3.654212383384145175e-03,-9.999933233436396618e-01,5.090354260185886801e+02
2.455161578174478887e+00,9.282449727087763947e+00,7.308858394010306903e+00,0.000000000000000000e+00,7.308571192687205419e-03,-9.999732920369029943e-01,5.108147668388181728e+02
2.598456156145628970e+00,9.440696497749408778e+00,7.452298437870135572e+00,0.000000000000000000e+00,1.096293002181265505e-02,-9.999399052769805119e-01,5.125941076590476086e+02
2.742456850358816922e+00,9.591664331565194601e+00,7.576687593194290748e+00,0.000000000000000000e+00,1.461714245292770192e-02,-9.998931638662756916e-01,5.143734484792770445e+02
2.747394698579857408e+00,9.596435003234043748e+00,7.580346891201812376e+00,0.000000000000000000e+00,1.827106208579380719e-02,-9.998330702123515712e-01,5.144337250064503451e+02
2.895826163130768904e+00,9.724917491204987385e+00,7.671420614038004793e+00,0.000000000000000000e+00,2.192454256709130619e-02,-9.997596283273413320e-01,5.162130658266797809e+02
3.048526456181461342e+00,9.837292007156897000e+00,7.741633527828411410e+00,0.000000000000000000e+00,-1.406330240796436299e-03,-9.999990111171379592e-01,5.179924066469092168e+02
3.207153356509110598e+00,9.928646574771404332e+00,7.791021911015849177e+00,0.000000000000000000e+00,-2.474914749781351522e-02,-9.996936929370573433e-01,5.197717474671386526e+02
3.373313398081801306e+00,9.993770054074410325e+00,7.819952700032339443e+00,-0.000000000000000000e+00,-4.806577624515451230e-02,-9.988441726084960059e-01,5.215510882873680885e+02
3.546079793793412982e+00,1.002899374027602875e+01,7.828809746017923565e+00,-5.416285183182596025e-02,-3.506605939432863583e-02,-9.979162073841656433e-01,5.233131214426992983e+02
3.727971726548360731e+00,1.003561845750086512e+01,7.818570652618783257e+00,-1.096295690348214752e-01,-2.159806040062421315e-02,-9.937378333243483963e-01,5.250924622629287342e+02
3.915633814363745913e+00,1.001580939241303803e+01,7.790068164290039121e+00,-1.658853990156143043e-01,-7.775533814735342830e-03,-9.861143825476466063e-01,5.268718030831581700e+02
4.107460193528581271e+00,9.971945778131413363e+00,7.744117500849059255e+00,-2.223579008971104665e-01,6.269455457438444061e-03,-9.749449511828336412e-01,5.286511439033876059e+02
4.301889117522104122e+00,9.906277879239880235e+00,7.681431227796162275e+00,-2.784431939427576275e-01,2.039214662959621532e-02,-9.602361939141812464e-01,5.304304847236170417e+02
4.497392656573402370e+00,9.820939972068693180e+00,7.602623448606051326e+00,-3.335368510283833188e-01,3.444221405302316796e-02,-9.421076917726527444e-01,5.322098255438464776e+02
4.692466704128023025e+00,9.717962723985937856e+00,7.508213417730544847e+00,-3.870659303078055613e-01,4.827163794457094842e-02,-9.207876055666156523e-01,5.339891663640759134e+02
4.885621226135046236e+00,9.599285042601051643e+00,7.398628595569213928e+00,-4.385182749224796894e-01,6.174237503623956208e-02,-8.965989079203123824e-01,5.357685071843053493e+02
5.075370691092394360e+00,9.466765463175500273e+00,7.274207163381428920e+00,-4.874656647255767306e-01,7.473292261606094555e-02,-8.699380529617689595e-01,5.375478480045347851e+02
5.260224620423756825e+00,9.322193140317104110e+00,7.135200012935986713e+00,-5.335785543036569711e-01,8.714309002340615840e-02,-8.412490762243913789e-01,5.393271888247642210e+02
5.378553933851311086e+00,9.219704546352566865e+00,7.033738737498902438e+00,-5.584182015956955514e-01,1.152673206615578011e-01,-8.215123595626148134e-01,5.405048080766844123e+02
5.550502577342561139e+00,9.056061627353535926e+00,6.866547886163313130e+00,-5.823813888684571394e-01,1.433361195325392468e-01,-8.001791516510540214e-01,5.422841488969138481e+02
5.714984228353850781e+00,8.885047741099446839e+00,6.685885026646023022e+00,-6.053270439499882638e-01,1.711948820240353220e-01,-7.773490092818960973e-01,5.440634897171432840e+02
5.871464488395738535e+00,8.708253425945457593e+00,6.492087539288610820e+00,-6.271299623827829572e-01,1.986915950059235103e-01,-7.531465065681253179e-01,5.458428305373727198e+02
5.912170672974553121e+00,8.658542958554187763e+00,6.435351300815885800e+00,-6.476842007326943929e-01,2.256809567111615344e-01,-7.277178587194255144e-01,5.463314974816321410e+02
6.051802708593970515e+00,8.474196097957982232e+00,6.216458953186920766e+00,-6.690841694188934818e-01,2.482563869308888338e-01,-7.004963530105279279e-01,5.481108383018615768e+02
6.182462658548822709e+00,8.286917527366579606e+00,5.986093013253726447e+00,-6.899338147295909218e-01,2.710688135625107242e-01,-6.712026740161926019e-01,5.498901791220910127e+02
