5.982080562436109972e+00,8.861148042302453121e+00,2.579713513148309545e+00,-9.320166204884507977e-01,3.382747416276152830e-01,1.300585187908009643e-01,1.091272501852537857e+02
5.933050472612500847e+00,8.848050388217124862e+00,2.222957572638875945e+00,-9.131252358456869445e-01,3.326612711104812159e-01,2.356666763989291036e-01,1.111341579074206578e+02
5.866266201464353180e+00,8.826750321642327535e+00,1.868916832984707455e+00,-8.852486204452482133e-01,3.237172290072773961e-01,3.339790946206586120e-01,1.131410656295875299e+02
5.781346308582900662e+00,8.796594150663256784e+00,1.519773739350190889e+00,-8.506898177966025765e-01,3.122504994723780403e-01,4.228787763371834041e-01,1.151479733517544020e+02
5.677765875311253652e+00,8.756865901686980536e+00,1.177747429801786483e+00,-8.118673116878233342e-01,2.991238388516553881e-01,5.013944527449776256e-01,1.171548810739212740e+02
5.554851932454008434e+00,8.706783313775508404e+00,8.451103610089315543e-01,-7.709478048010262041e-01,2.851200371271150336e-01,5.695138687522116605e-01,1.191617887960881461e+02
5.411777729614689392e+00,8.645493383416617661e+00,5.242053334054330715e-01,-7.296543222222098279e-01,2.708690989761945445e-01,6.278809610764384264e-01,1.211686965182550182e+02
5.247555798519980108e+00,8.572067437402090206e+00,2.174630433630435622e-01,-6.892263431233163207e-01,2.568304305875313553e-01,6.774992087590095968e-01,1.231756042404218903e+02
5.100971643047328641e+00,8.503978124340962452e+00,-1.071122207181698406e-02,-6.504726920554424474e-01,2.433093361808031097e-01,7.195038872844277122e-01,1.247541470318240329e+02
4.891391696540027922e+00,8.403351018074683765e+00,-2.815954340398295619e-01,-6.138622846817090029e-01,2.304881247402780775e-01,7.550154434175916363e-01,1.267610547539909049e+02
4.658952479806393043e+00,8.287828587831576499e+00,-5.317402853581920663e-01,-5.298997237234057689e-01,1.989625306345823574e-01,8.243908018660452974e-01,1.287679624761577770e+02
4.407321107413402217e+00,8.156629757189518770e+00,-7.618585046932547789e-01,-4.335229452170430431e-01,1.627757449323810335e-01,8.863193063631464863e-01,1.307748701983246633e+02
4.141800727048761566e+00,8.008993415553200990e+00,-9.737373082216713716e-01,-3.276540038724163328e-01,1.230249174786080396e-01,9.367538222103800605e-01,1.327817779204915496e+02
3.867581560120762152e+00,7.843985357268244307e+00,-1.169027263161742880e+00,-2.167614714720011715e-01,8.138787203945890836e-02,9.728260269802517790e-01,1.347886856426584359e+02
3.589778448247317399e+00,7.660492149104656256e+00,-1.349254653748525934e+00,-1.059799436820269281e-01,3.979250572791950130e-02,9.935717427669971125e-01,1.367955933648253222e+02
3.313467764389892434e+00,7.457213299674794627e+00,-1.515832916085307236e+00,-0.000000000000000000e+00,0.000000000000000000e+00,1.000000000000000000e+00,1.388025010869922085e+02
3.129680086964741204e+00,7.305187255090751286e+00,-1.620416080101628298e+00,2.947898624477056362e-02,-4.588012943810620351e-05,9.995653991935667948e-01,1.401660239784983446e+02
2.867351099356338917e+00,7.062367294559739328e+00,-1.762075017819755507e+00,5.919760660017563125e-02,-9.213321756354335998e-05,9.982462796746507383e-01,1.421729317006652309e+02
2.614607649112552501e+00,6.803196669612062486e+00,-1.891611625681202780e+00,8.907903344220917397e-02,-1.386396923766316939e-04,9.960245511934118223e-01,1.441798394228321172e+02
2.373130461913178557e+00,6.530196793746285699e+00,-2.009176065878982342e+00,1.190434235840522603e-01,-1.852752885544192815e-04,9.928890315510869868e-01,1.461867471449990035e+02
2.144708655162525179e+00,6.245768749146687782e+00,-2.114828805575713400e+00,1.490089332905549235e-01,-2.319126271860032446e-04,9.888358225793320022e-01,1.481936548671658898e+02
1.931252198040020573e+00,5.952210249793174590e+00,-2.208541069917805189e+00,1.788928069890576289e-01,-2.784229102064223436e-04,9.838685308964093545e-01,1.502005625893327760e+02
1.734805440401323340e+00,5.651731705182315935e+00,-2.290194626453187610e+00,2.086125068468354382e-01,-3.246776784340237986e-04,9.779983213541239007e-01,1.522074703114996623e+02
1.557561804763393232e+00,5.346471494854251105e+00,-2.359580899336144011e+00,2.380868477145519080e-01,-3.705505779593113586e-04,9.712437982492434507e-01,1.542143780336665486e+02
1.401879745400699040e+00,5.038510557052966021e+00,-2.416399406683003459e+00,2.672371012424654690e-01,-4.159190785552752947e-04,9.636307169921703997e-01,1.562212857558334349e+02
1.270300089098443719e+00,4.729886388661837415e+00,-2.460255509372080596e+00,2.959880343448018092e-01,-4.606660899093556060e-04,9.551915364530058072e-01,1.582281934780003212e+02
1.165564883437006038e+00,4.422606547998743309e+00,-2.490657454421568495e+00,3.242688505180207903e-01,-5.046814266603862629e-04,9.459648290926988556e-01,1.602351012001672075e+02
1.090637890711130709e+00,4.118661747073822710e+00,-2.507012690794478083e+00,3.520140075390099099e-01,-5.478630810373027321e-04,9.359945717483463268e-01,1.622420089223340938e+02
1.066998576470194582e+00,3.952595156448567959e+00,-2.508120278206754872e+00,3.491416528380724693e-01,5.072545006522091726e-02,9.356960163264453900e-01,1.633579516391370134e+02
1.057643523637223915e+00,3.661544614679194787e+00,-2.496220213858848957e+00,3.453258327509167169e-01,1.021370696367721043e-01,9.329084029211545115e-01,1.653648593613038997e+02
1.081175150970463017e+00,3.380940844680452528e+00,-2.471455880898080881e+00,3.405895515970354670e-01,1.532764435944266590e-01,9.276341354122189520e-01,1.673717670834707860e+02
1.136289232439617436e+00,3.121150151932134964e+00,-2.435897977003618209e+00,3.349777391928526749e-01,2.037395048402665110e-01,9.199348500914007465e-01,1.693238683089584242e+02
1.225570105636962337e+00,2.870623201523811119e+00,-2.388979619124451670e+00,2.689004246396145548e-01,1.546175912678717235e-01,9.506765812299976526e-01,1.713307760311253105e+02
1.345204303025467674e+00,2.639586748040781750e+00,-2.333957601541682969e+00,1.996445768615718874e-01,1.034909367600733987e-01,9.743878431806742846e-01,1.733376837532921968e+02
1.492194820338134109e+00,2.431035413897782327e+00,-2.273485627207691984e+00,1.287970561622021060e-01,5.153919730812095423e-02,9.903307677058130754e-01,1.753445914754590831e+02
1.503636169186844063e+00,2.418569239438772556e+00,-2.269212605400424021e+00,5.805655498841086337e-02,0.000000000000000000e+00,9.983132957257844220e-01,1.754787960264499702e+02
1.696954122031035794e+00,2.255646827503313911e+00,-2.202950611176895279e+00,4.845638226445699720e-02,2.307632786437024963e-02,9.985586923712281848e-01,1.774857037486168565e+02
1.910326512229974405e+00,2.120404934076267622e+00,-2.135301494126236932e+00,3.880168478619087924e-02,4.619620563754243264e-02,9.981785110101534242e-01,1.794926114707837428e+02
2.139548581647391146e+00,2.014878767187211484e+00,-2.067501898153536466e+00,2.911042554533118179e-02,6.931612439504609979e-02,9.971699243476109809e-01,1.814995191929506291e+02
2.380555791805708754e+00,1.941365913990574565e+00,-2.000787339728149483e+00,1.940084227217074575e-02,9.239241069920657579e-02,9.955336507443229843e-01,1.835064269151175154e+02
2.612553078829674913e+00,1.905075237053321047e+00,-1.940757653315083875e+00,9.691276332308372196e-03,1.153816378862233538e-01,9.932739585843088914e-01,1.853771636888261298e+02
2.865522734349397638e+00,1.903506784178093492e+00,-1.879907200805908118e+00,-0.000000000000000000e+00,1.382410334876689184e-01,9.903986150334931349e-01,1.873840714109930161e+02
3.118863293106826529e+00,1.941005798320040610e+00,-1.823668571310683717e+00,0.000000000000000000e+00,1.186318701107083040e-01,9.929383059354875973e-01,1.893909791331599024e+02
3.368960395276223707e+00,2.016877234502605809e+00,-1.772732596392756266e+00,0.000000000000000000e+00,9.893765151577713080e-02,9.950936343442976506e-01,1.913978868553267887e+02
3.612225121975638054e+00,2.129344451280363870e+00,-1.727619401469388194e+00,0.000000000000000000e+00,7.918128038697197502e-02,9.968602333508341795e-01,1.934047945774936750e+02
3.845001601656940160e+00,2.276940055865853019e+00,-1.688892735940846546e+00,0.000000000000000000e+00,5.938596055158473080e-02,9.982350964023283257e-01,1.954117022996605613e+02
4.063542262618506484e+00,2.458495624828971771e+00,-1.657164196778931897e+00,0.000000000000000000e+00,3.957506112840549622e-02,9.992166004108834487e-01,1.974186100218274476e+02
4.083223313683377320e+00,2.479313337628794578e+00,-1.654797749359743220e+00,0.000000000000000000e+00,1.977197878583857038e-02,9.998045153203162227e-01,1.976146921433139880e+02
4.265332122906754897e+00,2.723512699546978943e+00,-1.638488258920105967e+00,-0.000000000000000000e+00,0.000000000000000000e+00,1.000000000000000000e+00,1.996215998654808743e+02
4.426271066172828839e+00,2.999397797811033772e+00,-1.630188224265111119e+00,-2.824977638201585026e-02,4.100229236142620588e-03,9.995924860934966016e-01,2.016285075876477606e+02
4.566149427085660406e+00,3.304139083377924724e+00,-1.629181202945981788e+00,-5.684625779833265419e-02,8.250779936736321943e-03,9.983488506553013231e-01,2.036354153098146469e+02
4.686365340333016327e+00,3.634211006380419384e+00,-1.634286713707687300e+00,-8.572285364011085484e-02,1.244198700717914254e-02,9.962413308647204424e-01,2.056423230319815332e+02
4.788135896454710938e+00,3.986266043300028983e+00,-1.644370070093233105e+00,-1.148084271107033399e-01,1.666352551004737434e-02,9.932478804316384746e-01,2.076492307541484195e+02
4.872507905896774183e+00,4.357111197054836182e+00,-1.658333879419421786e+00,-1.440280445161817857e-01,2.090451941862624466e-02,9.893527800843948672e-01,2.096561384763153058e+02
4.940367159896213778e+00,4.743685563920740478e+00,-1.675109821155863266e+00,-1.733038471113081957e-01,2.515366815838386907e-02,9.845471393257908543e-01,2.116630461984821920e+02
4.992446267497271606e+00,5.143038812505015045e+00,-1.693650643111161536e+00,-2.025560248158150833e-01,2.939938793410620463e-02,9.788292664197955073e-01,2.136699539206490783e+02
5.029331135811155207e+00,5.552310426154002165e+00,-1.712922315462235945e+00,-2.317038654044228929e-01,3.362996401144172781e-02,9.722048880134465110e-01,2.156768616428159646e+02
5.051466149003450923e+00,5.968709565336118850e+00,-1.731896283845218987e+00,-2.606668482314746793e-01,3.783370946228978987e-02,9.646872056067667955e-01,2.176837693649828509e+02
5.059158090329107793e+00,6.389495410729724156e+00,-1.749541763468067446e+00,-2.893657485783830419e-01,4.199912545200533420e-02,9.562967829136196363e-01,2.196906770871497372e+02
5.052578840739767152e+00,6.811957850991150032e+00,-1.764818016512384791e+00,-3.177237175917178025e-01,4.611505798378010695e-02,9.470612655508886535e-01,2.216975848093166235e+02
5.031766877072238131e+00,7.233398381502411212e+00,-1.776666554967129885e+00,-3.456673036388933085e-01,5.017084614025683897e-02,9.370149419260014323e-01,2.237044925314835098e+02
4.996627582502333631e+00,7.651111081814422121e+00,-1.784003210479382151e+00,-3.731273837005943395e-01,5.415645726769506563e-02,9.261981611237207757e-01,2.257114002536503961e+02
4.946932371730577316e+00,8.062363540021042496e+00,-1.785710011810180520e+00,-4.000399779274915191e-01,5.806260520236741079e-02,9.146566295265595725e-01,2.277183079758172823e+02
4.882316623167549885e+00,8.464377591925950739e+00,-1.780626809040389613e+00,-4.263469263510481500e-01,6.188084848972421476e-02,9.024406124400683460e-01,2.297252156979841686e+02
4.802276400119636968e+00,8.854309741594367011e+00,-1.767542581775273902e+00,-4.519964134886647056e-01,6.560366652663693343e-02,8.896040698713365558e-01,2.317321234201510549e+02
4.717906025728676234e+00,9.183179256714142369e+00,-1.747972787269237216e+00,-4.769433337063342382e-01,6.922451259086716269e-02,8.762037567196601096e-01,2.334925382029819048e+02
4.605695485474837980e+00,9.540513953749147902e+00,-1.714849813517947963e+00,-4.494224243272512687e-01,7.054972781204348065e-02,8.905291799921339901e-01,2.354994459251487910e+02
4.569186174736956652e+00,9.637340385121467179e+00,-1.701732149989659604e+00,-4.214681032439552277e-01,7.180690669145753380e-02,9.039957998239520620e-01,2.360743157578326930e+02
4.428884768255032967e+00,9.955283540069727266e+00,-1.641372206084992014e+00,-3.426092077388184776e-01,5.270911691945486671e-02,9.379982301508624776e-01,2.380812234799995792e+02
4.280690364061461750e+00,1.025309081068222561e+01,-1.563745905251509027e+00,-2.590702555209062896e-01,3.272083032092281546e-02,9.653040712477294338e-01,2.400881312021664655e+02
4.130202404029543750e+00,1.053077936382194935e+01,-1.465414052562023395e+00,-1.727135029857914672e-01,1.229903597260196928e-02,9.848953140311520471e-01,2.420950389243333518e+02
3.983002177546394851e+00,1.078816236972616771e+01,-1.342782327910078344e+00,-8.565230091778361365e-02,-8.056497278757195415e-03,9.962925153784338850e-01,2.441019466465002381e+02
3.844693052805594036e+00,1.102484757945254046e+01,-1.192074357515335414e+00,0.000000000000000000e+00,-2.786260007479053613e-02,9.996117623943168162e-01,2.461088543686671244e+02
3.719149707786812531e+00,1.124075956598250770e+01,-1.011174390603636120e+00,0.000000000000000000e+00,-3.077937840114836759e-02,9.995262026906742703e-01,2.481157620908340107e+02
3.660662808478862384e+00,1.134249918138642066e+01,-9.019645887302238929e-01,0.000000000000000000e+00,-3.418107004929305665e-02,9.994156564964776779e-01,2.491596536104675010e+02
3.560423264308005820e+00,1.151847070189816691e+01,-6.654644970279001148e-01,0.000000000000000000e+00,-3.819940883446722169e-02,9.992701362317885083e-01,2.511665613326343873e+02
3.471625307383358727e+00,1.167568679599544978e+01,-4.050080544638454683e-01,0.000000000000000000e+00,-4.301852178423513917e-02,9.990742749082769381e-01,2.531734690548012736e+02
3.393162801810091000e+00,1.181503690137899731e+01,-1.232701121653415888e-01,0.000000000000000000e+00,-4.890380123910372662e-02,9.988034932980391911e-01,2.551803767769681599e+02
3.324015497302180489e+00,1.193728622306291243e+01,1.772339188636568863e-01,0.000000000000000000e+00,-5.625218602686220259e-02,9.984165921934587962e-01,2.571872844991350462e+02
3.263240172540002870e+00,1.204308071559396787e+01,4.941292223787214777e-01,0.000000000000000000e+00,-6.568492148783279527e-02,9.978404136379411815e-01,2.591941922213019325e+02
3.209962403619819771e+00,1.213295124968825078e+01,8.251637848605957171e-01,0.000000000000000000e+00,-7.823132946597848025e-02,9.969352331470613393e-01,2.612010999434688188e+02
3.163368887833166720e+00,1.220731698903057172e+01,1.168191523512783547e+00,0.000000000000000000e+00,-9.572739099041135957e-02,9.954075881839402618e-01,2.632080076656357051e+02
3.122700257427478476e+00,1.226648799768416254e+01,1.521156207886074974e+00,0.000000000000000000e+00,-1.217895688061634979e-01,9.925559434762398769e-01,2.652149153878025913e+02
3.087244321868945374e+00,1.231066709337691378e+01,1.882076054672875642e+00,0.000000000000000000e+00,-1.646176889616842720e-01,9.863574486366056826e-01,2.672218231099694776e+02
3.056329680486000733e+00,1.233995095682725918e+01,2.249028880257368801e+00,0.000000000000000000e+00,-2.472377618365815544e-01,9.689548436960506717e-01,2.692287308321363639e+02
3.029319650247374707e+00,1.235433050222726159e+01,2.620137699779513607e+00,0.000000000000000000e+00,-4.606602530255943795e-01,8.875765495338390210e-01,2.712356385543032502e+02
3.005615458407982832e+00,1.235376628892981721e+01,2.993554848726788453e+00,0.000000000000000000e+00,-9.999489041636315800e-01,1.010886056647248427e-02,2.732425462764701365e+02
2.984660671812315424e+00,1.233826364162214873e+01,3.367446324211060382e+00,0.000000000000000000e+00,-4.785099839973084856e-01,-8.780821118864086117e-01,2.752494539986370228e+02
2.965928413303641431e+00,1.230779652850591788e+01,3.739979860802006950e+00,0.000000000000000000e+00,-2.667763180900826203e-01,-9.637584739478552986e-01,2.772563617208039091e+02
2.948907842696741000e+00,1.226223135557391863e+01,4.109313019358457275e+00,0.000000000000000000e+00,-1.845249556516866951e-01,-9.828278286361976646e-01,2.792632694429707954e+02
2.933099276933547106e+00,1.220132583427411888e+01,4.473579383532124254e+00,0.000000000000000000e+00,-1.418309022889826521e-01,-9.898909006329399407e-01,2.812701771651376816e+02
2.918009380206406433e+00,1.212472707812890782e+01,4.830874576640152185e+00,0.000000000000000000e+00,-1.158317021223492366e-01,-9.932688542300313062e-01,2.832770848873045679e+02
2.903146380355841938e+00,1.203196891345505470e+01,5.179241994141996486e+00,0.000000000000000000e+00,-9.837010049705698089e-02,-9.951498999287488045e-01,2.852839926094714542e+02
2.888015267889345150e+00,1.192246838393073460e+01,5.516658144827370158e+00,0.000000000000000000e+00,-8.584455658279759038e-02,-9.963085426237712205e-01,2.872909003316383405e+02
2.872112933620335706e+00,1.179552142311102614e+01,5.841017490892473241e+00,0.000000000000000000e+00,-7.642539745492869796e-02,-9.970753023838551110e-01,2.892978080538052268e+02
2.854923200190947252e+00,1.165029766315828219e+01,6.150116673327260308e+00,0.000000000000000000e+00,-6.908633642100320271e-02,-9.976106846460316424e-01,2.913047157759721131e+02
2.835911701612122915e+00,1.148583434199223063e+01,6.441638004430572551e+00,0.000000000000000000e+00,-6.320773412887578657e-02,-9.980003919569837567e-01,2.933116234981389994e+02
2.814520563419601551e+00,1.130102926472859970e+01,6.713132103779993365e+00,0.000000000000000000e+00,-5.839356579226615690e-02,-9.982936399046447029e-01,2.953185312203058857e+02
2.790162834090371913e+00,1.109463276862412684e+01,6.961999547566174229e+00,0.000000000000000000e+00,-5.437899022428509949e-02,-9.985203680557483974e-01,2.973254389424727719e+02
2.762216615972555633e+00,1.086523863373395393e+01,7.185471393809325313e+00,0.000000000000000000e+00,-5.098022870019350977e-02,-9.986996627022940443e-01,2.993323466646396582e+02
2.751989012710889693e+00,1.078344257152986785e+01,7.248589105398223431e+00,-0.000000000000000000e+00,-4.806577624515451230e-02,-9.988441726084960059e-01,2.999799945693669656e+02
2.716183418953610484e+00,1.050609270838634046e+01,7.415395844211915666e+00,0.000000000000000000e+00,-3.058224763150043171e-02,-9.995322536715889328e-01,3.019869022915338519e+02
2.675534081246160323e+00,1.020665239030805616e+01,7.554562202126141379e+00,0.000000000000000000e+00,-1.307862994191873358e-02,-9.999144710618215193e-01,3.039938100137007382e+02
2.629680877805252948e+00,9.887578958629017478e+00,7.667938669870459023e+00,0.000000000000000000e+00,4.428997062264200361e-03,-9.999901919444122989e-01,3.060007177358676245e+02
2.578246939641949176e+00,9.551185684979490276e+00,7.757182521156861910e+00,0.000000000000000000e+00,2.192454256709130619e-02,-9.997596283273413320e-01,3.080076254580345108e+02
2.554208369432967807e+00,9.401943353452214325e+00,7.785430997462168712e+00,0.000000000000000000e+00,2.046321243654322317e-02,-9.997906065455791635e-01,3.088593910056161462e+02
2.493103054156812437e+00,9.037074698428156694e+00,7.830942828718773896e+00,0.000000000000000000e+00,1.900179799632906175e-02,-9.998194495372185742e-01,3.108662987277830325e+02
2.428549047401883598e+00,8.661247920696057534e+00,7.857751196954640527e+00,0.000000000000000000e+00,1.754030860895186908e-02,-9.998461569531097437e-01,3.128732064499499188e+02
2.362268879587976933e+00,8.276805187407454412e+00,7.868529576798303005e+00,0.000000000000000000e+00,1.607875363901610857e-02,-9.998707284851456878e-01,3.148801141721168051e+02
2.295993821438808258e+00,7.886007603257631615e+00,7.865831346634673871e+00,0.000000000000000000e+00,1.461714245292770366e-02,-9.998931638662756916e-01,3.168870218942836914e+02
2.231476277147261378e+00,7.491052061929988071e+00,7.852108918410103833e+00,0.000000000000000000e+00,1.315548441859394277e-02,-9.999134628705186323e-01,3.188939296164505777e+02
2.170502493430960023e+00,7.094087496603019183e+00,7.829732111001392880e+00,0.000000000000000000e+00,1.169378890512332535e-02,-9.999316253129723053e-01,3.209008373386174640e+02
2.114905675375394090e+00,6.697230648235305672e+00,7.801005904801210811e+00,0.000000000000000000e+00,1.023206528252526559e-02,-9.999476510498207515e-01,3.229077450607843502e+02
2.066579604134251014e+00,6.302581465842600039e+00,7.768187710536574642e+00,0.000000000000000000e+00,8.770322921409799688e-03,-9.999615399783404746e-01,3.249146527829512365e+02
2.027492856408627198e+00,5.912238249295541870e+00,7.733504281697853422e+00,0.000000000000000000e+00,7.308571192687206286e-03,-9.999732920369029943e-01,3.269215605051181228e+02
1.999703731202520762e+00,5.528312642262578791e+00,7.699168397284886112e+00,0.000000000000000000e+00,5.846819467267653885e-03,-9.999829072049767342e-01,3.289284682272850091e+02
1.985375995700948470e+00,5.152944580772868655e+00,7.667395439856020012e+00,0.000000000000000000e+00,4.385077115760825650e-03,-9.999903855031251343e-01,3.309353759494518954e+02
1.986795569294131925e+00,4.788317301451997743e+00,7.640419993083184202e+00,0.000000000000000000e+00,2.923353508175618402e-03,-9.999957269930037640e-01,3.329422836716187817e+02
2.006388272837064779e+00,4.436672512769558985e+00,7.620512583161357156e+00,0.000000000000000000e+00,1.461658013619830535e-03,-9.999989317773551045e-01,3.349491913937856680e+02
2.046738779256362495e+00,4.100325832620827171e+00,7.609996689497618760e+00,-0.000000000000000000e+00,-0.000000000000000000e+00,-1.000000000000000000e+00,3.369560991159525543e+02
2.070790357950613281e+00,3.979563738619965374e+00,7.610124338911831821e+00,1.060054773224697159e-04,0.000000000000000000e+00,-9.999999943814193992e-01,3.377160829822267374e+02
2.158067450039078405e+00,3.680110004606558682e+00,7.620417069796242338e+00,2.120109561260726005e-04,0.000000000000000000e+00,-9.999999775256770418e-01,3.397229907043936237e+02
2.268691099055109905e+00,3.402480827607518243e+00,7.637812389115758549e+00,3.180164328372064105e-04,0.000000000000000000e+00,-9.999999494327729277e-01,3.417298984265605100e+02
2.402833234309039057e+00,3.149510487040104501e+00,7.658987883357814219e+00,4.240219038822693907e-04,0.000000000000000000e+00,-9.999999101027085002e-01,3.437368061487273962e+02
2.560871125807028914e+00,2.924215994047707934e+00,7.680649459696661907e+00,5.300273656876602468e-04,0.000000000000000000e+00,-9.999998595354860909e-01,3.457437138708942825e+02
2.741965017463964926e+00,2.728603557892594456e+00,7.699492472542487143e+00,4.651046147315422382e-04,0.000000000000000000e+00,-9.999998918388428581e-01,3.477506215930611688e+02
2.750458440466347909e+00,2.721288480950985189e+00,7.700067004940086335e+00,4.001818598290745807e-04,0.000000000000000000e+00,-9.999999199272362471e-01,3.478359955444208254e+02
2.966166171214808855e+00,2.572363047995298579e+00,7.706456636491353152e+00,3.352591018011984625e-04,0.000000000000000000e+00,-9.999999438006658137e-01,3.498429032665877116e+02
3.196563696015560563e+00,2.451852331703796573e+00,7.703062756356955809e+00,2.703363414688552346e-04,0.000000000000000000e+00,-9.999999634591305586e-01,3.518498109887545979e+02
3.437080043295718923e+00,2.359000609245301749e+00,7.686350387979700827e+00,2.054135796529863020e-04,0.000000000000000000e+00,-9.999999789026304819e-01,3.538567187109214842e+02
3.683214735137574358e+00,2.293302868701308839e+00,7.652684773011370289e+00,1.404908171745332596e-04,0.000000000000000000e+00,-9.999999901311650286e-01,3.558636264330883705e+02
3.930506134827048914e+00,2.254500498222652194e+00,7.598304139854152872e+00,7.556805485443768885e-05,0.000000000000000000e+00,-9.999999971447345315e-01,3.578705341552552568e+02
4.174500057275020382e+00,2.242579124218017306e+00,7.519291520624470593e+00,1.064529351364108455e-05,0.000000000000000000e+00,-9.999999999433388798e-01,3.598774418774221431e+02
4.410718425383862495e+00,2.257768580871841735e+00,7.411545405393312080e+00,0.000000000000000000e+00,2.371239420780988857e-02,-9.997188216498343882e-01,3.618843495995890294e+02
4.635887704977249335e+00,2.299659297222786503e+00,7.272671466487665271e+00,-3.462924255264746010e-03,2.440447026856028614e-02,-9.996961688365686438e-01,3.638912573217559157e+02
4.738915490142910691e+00,2.332135348564825517e+00,7.190918433118030251e+00,-7.356791371201538803e-03,2.518231836079053154e-02,-9.996558049962478432e-01,3.648616833817936254e+02
4.939935167739871957e+00,2.422557768338815976e+00,6.993970061661134885e+00,-1.176715757109889592e-02,2.606289189738420983e-02,-9.995910462127209906e-01,3.668685911039605116e+02
5.129077916043093488e+00,2.533888292230732642e+00,6.771541502409872848e+00,-1.680375845714246127e-02,2.706791261214329392e-02,-9.994923520510476944e-01,3.688754988261273979e+02
5.306433892246080752e+00,2.663815518540009197e+00,6.526146505254692087e+00,-2.260966766280790921e-02,2.822566720931568227e-02,-9.993458433589276213e-01,3.708824065482942842e+02
5.471983013930412199e+00,2.810167486378337021e+00,6.260126756284809524e+00,-2.937494064087795703e-02,2.957367872052660968e-02,-9.991308775076865878e-01,3.728893142704611705e+02
5.625596051444324175e+00,2.970896387933350535e+00,5.975669421611442544e+00,-3.735751949546448764e-02,3.116279036512222683e-02,-9.988159471262988420e-01,3.748962219926280568e+02
5.767034755798884582e+00,3.144064207995056925e+00,5.674823533534512521e+00,-4.691631485380066968e-02,3.306361117253075327e-02,-9.983514696822812784e-01,3.769031297147949431e+02
5.895951031335353143e+00,3.327829191879286164e+00,5.359515341816635470e+00,-5.856555793606337684e-02,3.537707222623535236e-02,-9.976565231502959596e-01,3.789100374369618294e+02
6.011885154295555367e+00,3.520433049058597330e+00,5.031562745075616405e+00,-7.306811270472894637e-02,3.825247909286515202e-02,-9.965930958766566761e-01,3.809169451591287157e+02
6.114263030369950336e+00,3.720188805366893003e+00,4.692688910415563797e+00,-9.160425314998478508e-02,4.192000350371476863e-02,-9.949127469839160742e-01,3.829238528812956019e+02
6.202392476240868646e+00,3.925469221621948002e+00,4.344535183333956496e+00,-1.160966577229445712e-01,4.675284689763634788e-02,-9.921369549475150817e-01,3.849307606034624882e+02
6.275458502011225903e+00,4.134695700946369179e+00,3.988673384623666163e+00,-1.498854971714138062e-01,5.339522796518111208e-02,-9.872604962056492628e-01,3.869376683256293745e+02
6.332517563144601347e+00,4.346327610996929103e+00,3.626617586397749893e+00,-1.992652447447225139e-01,6.304992155749777893e-02,-9.779151648422367282e-01,3.889445760477962608e+02
6.372490742077523862e+00,4.558851950765780536e+00,3.259835455464014764e+00,-2.773706558215986995e-01,7.818922303112016414e-02,-9.575760881992021467e-01,3.909514837699631471e+02
6.394155810930270967e+00,4.770773294623254834e+00,2.889759249033627686e+00,-4.148247757454049944e-01,1.044078249654162155e-01,-9.038912608902495149e-01,3.929583914921300334e+02
6.396138117666139600e+00,4.980603948857277530e+00,2.517796545142632958e+00,-6.796988024578891618e-01,1.529605839171832848e-01,-7.173650379723183201e-01,3.949652992142969197e+02
6.376900228559821748e+00,5.186854258149875108e+00,2.145340788178167646e+00,-9.788138145780179711e-01,1.970872086751439822e-01,-5.549908618950098738e-02,3.969722069364638060e+02
6.335718089772177208e+00,5.388531783333307956e+00,1.773766071100101760e+00,-7.596632002411933815e-01,1.368594396960966242e-01,6.357525587564544223e-01,3.989791146586306922e+02
6.273669626270199196e+00,5.585631834224834336e+00,1.404421772683020375e+00,-5.185308736964960863e-01,8.352624451078823065e-02,8.509695056237165378e-01,4.009860223807975785e+02
6.214860274561298858e+00,5.725236469783506088e+00,1.139658632090762458e+00,-3.883188633024918790e-01,5.584943713382550107e-02,9.198311262266000154e-01,4.024389225983890128e+02
6.116022563139709156e+00,5.914028726410327508e+00,7.790236848563628635e-01,-3.131310639461064582e-01,4.012267287797401105e-02,9.488620067813372527e-01,4.044458303205558991e+02
6.001258797697272662e+00,6.099098248462313521e+00,4.249309662305031376e-01,-2.651820091878236418e-01,3.017990869653409264e-02,9.637259336108882080e-01,4.064527380427227854e+02
5.872087677268734041e+00,6.280766939850058073e+00,7.884517853196659765e-02,-2.321932974907647551e-01,2.337642164115807247e-02,9.723887162609508028e-01,4.084596457648896717e+02
5.729921899297170107e+00,6.459317296562256061e+00,-2.577089883433152373e-01,-2.081914705156872603e-01,1.844480030873279705e-02,9.779141582705951352e-01,4.104665534870565580e+02
5.576078474347676561e+00,6.634995480849380733e+00,-5.831354340011256632e-01,-1.899770818596108468e-01,1.471249109354244577e-02,9.816782828268786343e-01,4.124734612092234443e+02
5.411788345249523680e+00,6.808014028344517854e+00,-8.957546896215953236e-01,-1.756966645885041367e-01,1.179235678994095850e-02,9.843737208874551170e-01,4.144803689313903305e+02
5.238205379994437472e+00,6.978554214699630442e+00,-1.193791335438016077e+00,-1.642070942120511245e-01,9.446745601930957650e-03,9.863806512741249977e-01,4.164872766535572168e+02
5.056414803222414989e+00,7.146768105123763704e+00,-1.475360699355939387e+00,-1.547668598048277944e-01,7.522052522264937452e-03,9.879223845181387409e-01,4.184941843757241031e+02
4.867441127093529829e+00,7.312780307234238997e+00,-1.738454737058656052e+00,-1.468746973875074135e-01,5.914735509855845869e-03,9.891374217828261539e-01,4.205010920978909894e+02
4.672255638740722361e+00,7.476689444846263299e+00,-1.980926987813869333e+00,-1.401799343785732899e-01,4.552526802613861973e-03,9.901155793630004309e-01,4.225079998200578757e+02
4.471783498303376625e+00,7.638569367704518775e+00,-2.200476493271243505e+00,-1.344300630838588528e-01,3.383488961412368587e-03,9.909173074185947394e-01,4.245149075422247620e+02
4.266910498730719148e+00,7.798470109678909523e+00,-2.394630558770557638e+00,-1.294387291690123343e-01,2.369353733563965472e-03,9.915845912245694338e-01,4.265218152643916483e+02
4.058489536095033934e+00,7.956418605585812820e+00,-2.560726228009102101e+00,-1.250654495823499968e-01,1.481312800595928564e-03,9.921473877570567979e-01,4.285287229865585346e+02
3.847346837052834090e+00,8.112419174533075150e+00,-2.695890332277252721e+00,-1.212023455320923732e-01,6.972705595291984158e-04,9.926275763101114480e-01,4.305356307087254208e+02
3.634287988321678320e+00,8.266453775500265166e+00,-2.797017964792045674e+00,-1.177652196089313680e-01,0.000000000000000000e+00,9.930414659270077049e-01,4.325425384308923071e+02
3.420118901324918692e+00,8.418168209731273777e+00,-2.861760379501875118e+00,-8.855273920304659874e-02,-2.929336373345498359e-02,9.956406536601529744e-01,4.345494461530591934e+02
3.205662811762829190e+00,8.566555566247188835e+00,-2.889518555017180468e+00,-5.908627400109450062e-02,-5.863745373251302850e-02,9.965292074216565155e-01,4.365563538752260797e+02
3.167271586953484430e+00,8.592287000872701697e+00,-2.887896990680498988e+00,-2.951758056969070593e-02,-8.788009368735466564e-02,9.956936283670864141e-01,4.369158294670336886e+02
2.953653996960345918e+00,8.730309654807644648e+00,-2.841954794715849886e+00,0.000000000000000000e+00,-1.168706797253571267e-01,9.931471412739065752e-01,4.389227371892005749e+02
2.741750698942294395e+00,8.861801077231188373e+00,-2.758730904777544790e+00,3.528917619882777218e-02,-1.677695373135883461e-01,9.851944256809376244e-01,4.409296449113674612e+02
2.550570351711568762e+00,8.974528424020773443e+00,-2.648991295353773978e+00,7.167831704914423563e-02,-2.197747883438991856e-01,9.729137995081561519e-01,4.427623174827762114e+02
2.344712042959587350e+00,9.088420028839417242e+00,-2.494037709725382079e+00,1.087443894416666029e-01,-2.722368744780782057e-01,9.560657623507738956e-01,4.447692252049430977e+02
2.143369190186828810e+00,9.191209535658646956e+00,-2.307349020424553032e+00,1.460013470729964458e-01,-3.244327835218775435e-01,9.345731515665945954e-01,4.467761329271099839e+02
1.947541751081487638e+00,9.281198920220335324e+00,-2.091788967039558411e+00,1.829279145294851749e-01,-3.756097133557893542e-01,9.085453875941890134e-01,4.487830406492768702e+02
1.758254794921168651e+00,9.356584386509538831e+00,-1.850004986031722254e+00,2.190020207221151094e-01,-4.250362666323186933e-01,8.782837166695569575e-01,4.507899483714437565e+02
1.576565182763155271e+00,9.415442542751009114e+00,-1.584448045226255486e+00,2.537369089545934986e-01,-4.720535577862963184e-01,8.442647805134761985e-01,4.527968560936106428e+02
1.403568352764763771e+00,9.455715615129756557e+00,-1.297391006369336575e+00,2.867132686230191019e-01,-5.161181511779057152e-01,8.071044267133001826e-01,4.548037638157775291e+02
1.240405252279193737e+00,9.475195586927831926e+00,-9.909456533229625830e-01,3.176025864001144061e-01,-5.568305003724073332e-01,7.675079093839831668e-01,4.568106715379444154e+02
1.088269458380799026e+00,9.471507142301380355e+00,-6.670785134719140475e-01,3.461790115478040053e-01,-5.939459257241979095e-01,7.262150709530964532e-01,4.588175792601113017e+02
1.031556734286433796e+00,9.459945189506697716e+00,-5.296260699812940231e-01,3.730002940945622569e-01,-6.585538669733481676e-01,6.535882380366249134e-01,4.596302034976117739e+02
9.043247035084844843e-01,9.407101514004654774e+00,-1.765006103053744779e-01,3.976325766917401805e-01,-7.206161658691753180e-01,5.679794674471043692e-01,4.616371112197786601e+02
7.906505357455874128e-01,9.332240495156717941e+00,1.879938754160140058e-01,4.185148779743332881e-01,-7.768175051315258095e-01,4.705314661479728655e-01,4.636440189419455464e+02
6.914669002210024340e-01,9.237764074579365214e+00,5.614074829211369577e-01,4.342648998545775019e-01,-8.239733358913650108e-01,3.639806842324871949e-01,4.656509266641124327e+02
6.078379003688911819e-01,9.125917344923980323e+00,9.413571296272819078e-01,4.440112943389266653e-01,-8.597378963399656682e-01,2.523979399606929297e-01,4.676578343862793190e+02
5.409657056011558662e-01,8.998804150857365514e+00,1.325508700664017603e+00,4.476031950668049597e-01,-8.831324650332275095e-01,1.404579259790020851e-01,4.696647421084462053e+02
4.921983680233222302e-01,8.858401560411961029e+00,1.711559561770041427e+00,4.455936070206101274e-01,-8.946445331589906180e-01,3.251917389931663349e-02,4.716716498306130916e+02
4.630388729466280995e-01,8.706573304052467321e+00,2.097221308040967624e+00,4.390216570551887521e-01,-8.958922234213534397e-01,-6.809631891416674521e-02,4.736785575527799779e+02
4.545578588961164956e-01,8.544871442131075412e+00,2.480207245016849082e+00,4.361507850460406011e-01,-8.876658822441102492e-01,-1.477219489565040067e-01,4.756854652749468642e+02
4.610179282359487818e-01,8.456398831236109359e+00,2.676382137938328576e+00,4.302864311534108643e-01,-8.732817482878086901e-01,-2.285444711049674782e-01,4.767266845399978479e+02
4.940909694156584986e-01,8.277773621976987073e+00,3.047511640552633683e+00,4.213648275402278598e-01,-8.526583047272646709e-01,-3.089101770606159647e-01,4.787335922621647342e+02
5.474214895896910571e-01,8.091703263583699623e+00,3.409369371874975574e+00,4.095090214200683976e-01,-8.260973173627793598e-01,-3.871247649293407256e-01,4.807404999843316205e+02
6.209453416571354412e-01,7.898844517995541104e+00,3.759504159802740109e+00,3.950226034252588003e-01,-7.942658929855188621e-01,-4.616262926037107972e-01,4.827474077064985067e+02
7.147569101088234733e-01,7.699802993609131896e+00,4.095377004326626214e+00,3.783535305516018687e-01,-7.581180222335275332e-01,-5.311362069035234779e-01,4.847543154286653930e+02
8.286343110828005010e-01,7.495536682096004988e+00,4.414977232943425811e+00,3.535955984509715488e-01,-7.275844432322002842e-01,-5.878699096931125911e-01,4.867612231508322793e+02
9.615673138286002786e-01,7.287768115228628218e+00,4.717442614276495583e+00,3.257260369552247847e-01,-6.917138810785001812e-01,-6.445420510507920975e-01,4.887681308729991656e+02
9.779452393403221810e-01,7.265052255795306557e+00,4.748382838410005746e+00,2.948480401237960069e-01,-6.504412291425979431e-01,-6.999934575884426691e-01,4.889859720535940255e+02
1.146074846703577510e+00,7.055488385300258791e+00,5.015631522938972076e+00,2.612378394074146293e-01,-6.039778909734442314e-01,-7.529711139725189240e-01,4.909928797757609118e+02
1.330661613383291364e+00,6.846942027963211608e+00,5.264510873015800563e+00,2.253491704177326138e-01,-5.528420173386201508e-01,-8.022365332350581690e-01,4.929997874979277981e+02
1.530814483487588085e+00,6.641536840443864165e+00,5.494263909048514805e+00,1.877909748336344664e-01,-4.978462235663475011e-01,-8.466898413538216372e-01,4.950066952200946844e+02
1.745780229886104040e+00,6.441427864441937601e+00,5.703990357745166939e+00,1.492787641642967233e-01,-4.400382203800470848e-01,-8.854841699174194058e-01,4.970136029422615707e+02
1.974938130619537047e+00,6.248816447006323216e+00,5.892639907295813551e+00,1.105680135879550663e-01,-3.806032836839751687e-01,-9.181044901427012350e-01,4.990205106644284569e+02
2.217795789009509910e+00,6.065965553652579167e+00,6.059004338472881557e+00,7.238356247886927608e-02,-3.207490290048424786e-01,-9.443943457451015044e-01,5.010274183865953432e+02
2.473986070093183276e+00,5.895215578708967286e+00,6.201708472696650709e+00,3.535955907233816892e-02,-2.615971054938831530e-01,-9.645292406036387600e-01,5.030343261087622295e+02
2.743265135444330927e+00,5.739000761261274342e+00,6.319199869248806500e+00,-0.000000000000000000e+00,-2.041017182454783752e-01,-9.789496864544384724e-01,5.050412338309291158e+02
3.024766441709111575e+00,5.599166581851400259e+00,6.410270785140500749e+00,-4.695089142360747703e-02,-1.715142162470272846e-01,-9.840622375742789085e-01,5.070481415530960021e+02
3.191637571075859547e+00,5.529072385691659264e+00,6.447040088137834246e+00,-9.438316984268300958e-02,-1.379068042376048464e-01,-9.859378938834931771e-01,5.081959379549235223e+02
3.491136959512425531e+00,5.423917428406421770e+00,6.484487113564267879e+00,-1.418179278628407258e-01,-1.035977630501700580e-01,-9.844567937841106620e-01,5.102028456770904086e+02
3.795595399167932094e+00,5.336127977437262970e+00,6.494847139280627069e+00,-1.887663415927729460e-01,-6.893344746182232530e-02,-9.795996366387181853e-01,5.122097533992572380e+02
4.102201826122698236e+00,5.266044682291948220e+00,6.477710506023169224e+00,-2.347544618139630335e-01,-3.427107821610043958e-02,-9.714503774544238635e-01,5.142166611214240675e+02
4.408165381861178567e+00,5.214167730520276933e+00,6.432461550508485892e+00,-2.793467611515190185e-01,3.937469914031367576e-05,-9.601902860807274287e-01,5.162235688435908969e+02
4.710839966394094525e+00,5.180070963266230066e+00,6.359001309139980407e+00,-3.580658927023295246e-01,3.561967673316066181e-03,-9.336895248794312430e-01,5.182304765657577263e+02
4.906896326759166982e+00,5.168034320795813485e+00,6.292597259935096332e+00,-4.386870900202858858e-01,7.263502438777657243e-03,-8.986105266364596833e-01,5.195549245166426999e+02
5.196224861311715237e+00,5.162853366145466083e+00,6.166285375679588121e+00,-5.191945684766677838e-01,1.106615614601064515e-02,-8.545844254680041718e-01,5.215618322388095294e+02
5.475484823767312825e+00,5.167528146598697525e+00,6.015652424197285519e+00,-5.973031745784382895e-01,1.487361518640173408e-02,-8.018776048810731805e-01,5.235687399609763588e+02
5.742177408524747229e+00,5.178878368909916929e+00,5.841991807343482890e+00,-6.707316279333230824e-01,1.858132106844937251e-02,-7.414673410186489733e-01,5.255756476831431883e+02
5.993679163264831189e+00,5.193798113011724560e+00,5.646424404481405368e+00,-7.375119595513032200e-01,2.208990291091719738e-02,-6.749726999725124132e-01,5.275825554053100177e+02
6.227222767975924000e+00,5.209233757216606087e+00,5.429906970068399730e+00,-7.962448805429165333e-01,2.531807206284178435e-02,-6.044444436308579194e-01,5.295894631274768471e+02
6.439876521496902484e+00,5.222162483840689262e+00,5.193239301626170423e+00,-8.462273665563631031e-01,2.821125669297908783e-02,-5.320745897774912248e-01,5.315963708496436766e+02
6.628522385387875637e+00,5.229571216617918239e+00,4.937070231797219932e+00,-8.874313235737447680e-01,3.074407577672122124e-02,-4.599135220286383330e-01,5.336032785718105060e+02
6.791033370895806165e+00,5.229447071163827232e+00,4.662494528250125114e+00,-9.000501559791121986e-01,8.961259744087357593e-02,-4.264730930573177314e-01,5.356101862939773355e+02
6.851425271775201331e+00,5.226082027852008594e+00,4.533464388143290336e+00,-9.086296680914546231e-01,1.502370176263237433e-01,-3.896420983399517257e-01,5.364998630031474249e+02
6.962011560926410603e+00,5.211722694035117343e+00,4.228067331087648206e+00,-9.126128476877807261e-01,2.117288559719637808e-01,-3.497265814661547623e-01,5.385067707253142544e+02
7.047604322998711979e+00,5.191163730838987966e+00,3.910602339477969203e+00,-9.116189709492469317e-01,2.730815298627338739e-01,-3.072089351781045474e-01,5.405136784474810838e+02
7.108900141051252675e+00,5.165221229258357027e+00,3.583481022859912546e+00,-9.054962096780606595e-01,3.332442868003443470e-01,-2.627258258595744911e-01,5.425205861696479133e+02
7.146419539229491136e+00,5.134665081423205990e+00,3.249042645874269386e+00,-8.943472168997013139e-01,3.912084514551755765e-01,-2.170230474714661406e-01,5.445274938918147427e+02
7.160510513988824322e+00,5.100226410399288923e+00,2.909571653939932112e+00,-8.785206941709460260e-01,4.460902857064066862e-01,-1.708942565207375308e-01,5.465344016139815722e+02
7.151350830601433728e+00,5.062604681151892549e+00,2.567314788233958200e+00,-8.585705083661129278e-01,4.971950566882050726e-01,-1.251149781951268192e-01,5.485413093361484016e+02
7.118949099592338570e+00,5.022474557689529107e+00,2.224497918193152124e+00,-8.351919860094663139e-01,5.440521584196161831e-01,-8.038404956532353707e-02,5.505482170583152310e+02
7.063144639137910907e+00,4.980492569399081582e+00,1.883342717645378306e+00,-8.838572663660483331e-01,4.662736203529921353e-01,3.721886154693686277e-02,5.525551247804820605e+02
6.983606120876611811e+00,4.937303648133561040e+00,1.546083309507540582e+00,-9.142995659251547114e-01,3.707153908851415491e-01,1.631759869280720587e-01,5.545620325026488899e+02
6.879828987968058307e+00,4.893547596707241709e+00,1.214983003751484381e+00,-9.208891648225518978e-01,2.625738083159671055e-01,2.881286887813720443e-01,5.565689402248157194e+02
6.751131625532475589e+00,4.849865549083864025e+00,8.923512540381656200e-01,-9.031065787096447250e-01,1.503740694786303289e-01,4.022264868451558839e-01,5.585758479469825488e+02
6.596650254747276954e+00,4.806906482710215478e+00,5.805609600583347962e-01,-8.657294076430799290e-01,4.290388604163330316e-02,4.986700806189284796e-01,5.605827556691493783e+02
6.518017140704516876e+00,4.788668278054072580e+00,4.503866093426767137e-01,-8.412714922966975095e-01,1.643861211135741740e-01,5.150140575111722407e-01,5.614567949470273334e+02
6.312595288673487737e+00,4.748380380715478744e+00,1.657098260036975745e-01,-8.003244961182692796e-01,2.920910800963413823e-01,5.236062469463012015e-01,5.634637026691941628e+02
6.084615277079108431e+00,4.710476185041558850e+00,-1.037422283090522063e-01,-7.424798747208293248e-01,4.191658680095753930e-01,5.225166128749600958e-01,5.654706103913609923e+02
5.836603874654749724e+00,4.675543885240619701e+00,-3.568633600691971108e-01,-6.701604673922154642e-01,5.380689383720788088e-01,5.112404184958299069e-01,5.674775181135278217e+02
5.570942077475204535e+00,4.644170819110260418e+00,-5.924250251619549434e-01,-5.882036322916559534e-01,6.426218574380608839e-01,4.909721329177032523e-01,5.694844258356946511e+02
5.289883115015847181e+00,4.616949171990112788e+00,-8.090671246747855871e-01,-5.024143593103287397e-01,7.294795710168736624e-01,4.641544646212399372e-01,5.714913335578614806e+02
5.142841282605339792e+00,4.605512523130249392e+00,-9.071773848864986833e-01,-4.620216413716503601e-01,6.708311607809352983e-01,5.801047807332302408e-01,5.724938121753980340e+02
4.837144948562675850e+00,4.587372880114947371e+00,-1.082233755715990009e+00,-4.060025734994273106e-01,5.894940709848718319e-01,6.983256049906267915e-01,5.745007198975648635e+02
4.522255671314225900e+00,4.574809760090127853e+00,-1.234759271541984393e+00,-3.342951717082326968e-01,4.853783240241022479e-01,8.078704232363733695e-01,5.765076276197316929e+02
4.200416950138577299e+00,4.568349901074618025e+00,-1.363370769403350558e+00,-2.507215124292911934e-01,3.640334044166850802e-01,8.970052417204522621e-01,5.785145353418985223e+02
3.873824879206502203e+00,4.568544921478776999e+00,-1.466505923481483675e+00,-1.624013416991722802e-01,2.357968397746283418e-01,9.581365531940668756e-01,5.805214430640653518e+02
3.544644994155730089e+00,4.575975833244398494e+00,-1.542411540216410915e+00,-7.700401968495433624e-02,1.118041568887653131e-01,9.907422527856332151e-01,5.825283507862321812e+02
3.281750851945241187e+00,4.588005477636053264e+00,-1.579748347479395409e+00,-4.636159474099297807e-07,-1.156627263298117030e-06,9.999999999992237321e-01,5.841289155124313766e+02
2.953988640669089172e+00,4.611659913379030584e+00,-1.596551806242239469e+00,2.681931660621287954e-04,-1.095234915701256972e-01,9.939841713361005082e-01,5.861358232345982060e+02
2.630864961786146594e+00,4.645724676332924297e+00,-1.584221078938211846e+00,5.402752966848036777e-04,-2.204398506251488976e-01,9.754004205242921000e-01,5.881427309567650354e+02
2.315384279099030440e+00,4.692309035913909021e+00,-1.544381907292351475e+00,8.055240932190443079e-04,-3.285681141401097793e-01,9.444799338796705523e-01,5.901496386789318649e+02
2.013596534952079686e+00,4.752976286495784741e+00,-1.479094964276418178e+00,1.054433382684529484e-03,-4.300331969161960144e-01,9.028124598831572811e-01,5.921369803695178007e+02
1.722549813279469211e+00,4.830532163353503883e+00,-1.388559482194371641e+00,5.936886082776759999e-02,-4.586488818677530999e-01,8.866321342729874821e-01,5.941438880916846301e+02
1.447948031657979140e+00,4.924836959677736381e+00,-1.275248764385988443e+00,1.188010439908855631e-01,-4.858187122573658923e-01,8.659483187623094880e-01,5.961507958138514596e+02
1.192461804781457246e+00,5.035817066744423975e+00,-1.141088718352608611e+00,1.785272233561128463e-01,-5.110511534102131215e-01,8.408060115858160266e-01,5.981577035360182890e+02
9.589059225496689987e-01,5.163498273310104025e+00,-9.878490492738655204e-01,2.376746698686645898e-01,-5.339169522054149075e-01,8.114452781614431842e-01,6.001646112581851185e+02
7.502615466677181599e-01,5.308004494804767326e+00,-8.171565185717107882e-01,2.953831720711154740e-01,-5.540835595963644611e-01,7.782931264261735427e-01,6.021715189803519479e+02
5.696996545565762293e-01,5.469557024705325787e+00,-6.305071315447063895e-01,3.508664971074874628e-01,-5.713388908188477000e-01,7.419329976793122006e-01,6.041784267025187773e+02
5.002025087484117671e-01,5.552401739547976334e+00,-5.370893451142125796e-01,4.034638481846201108e-01,-5.856005661191168166e-01,7.030568257040307190e-01,6.051097558592584846e+02
3.824606647247909552e-01,5.747267648353312275e+00,-3.223280802753722973e-01,4.074224363607800714e-01,-6.163615249986897915e-01,6.738734516592381762e-01,6.071166635814253141e+02
2.956827241521264860e-01,5.956861463278613655e+00,-9.545055803516734605e-02,4.109543596142326560e-01,-6.492307573241636875e-01,6.400124514869602876e-01,6.091235713035921435e+02
2.375805392686597961e-01,6.178886985068153592e+00,1.421333058215825118e-01,4.138018902017304157e-01,-6.840857693765217684e-01,6.006618481325471937e-01,6.111304790257589730e+02
2.060614172496438024e-01,6.411162118990504588e+00,3.890938069677238875e-01,4.156220284201925241e-01,-7.206337418041489640e-01,5.549282292920733051e-01,6.131373867479258024e+02
1.992133024028678867e-01,6.651600702528660314e+00,6.441714904359945315e-01,4.159719631962502384e-01,-7.583410817851705676e-01,5.018825853838272399e-01,6.151442944700926319e+02
2.152911554658369364e-01,6.898195188130161526e+00,9.061677148267696102e-01,4.143027703308440057e-01,-7.963555169039766568e-01,4.406485052655778611e-01,6.171512021922594613e+02
2.527044345143117932e-01,7.149000040035935477e+00,1.173935672127631058e+00,4.099713908809833329e-01,-8.334379420659574489e-01,3.705464281085080747e-01,6.191581099144262907e+02
3.100055890125477664e-01,7.402115710442380703e+00,1.446371795869497712e+00,4.022839718112891649e-01,-8.679361974366539556e-01,2.912977226188618873e-01,6.211650176365931202e+02
3.858794849415930761e-01,7.655673065404474897e+00,1.722407493251623567e+00,3.905821255043083196e-01,-8.978463362681629034e-01,2.032672125217783177e-01,6.231719253587599496e+02
