3.299662745679531106e+00,6.384417258876353252e+00,-2.831981821638263508e+00,-6.434689647070572505e-02,-5.266490334670456626e-07,9.979275910176603759e-01,2.981402982962795818e+02
3.274871068644696681e+00,6.638033346611055485e+00,-2.910086163151174077e+00,-7.506263866069232127e-02,-4.212706069618188695e-07,9.971788206119888143e-01,3.005004344014515141e+02
3.229192582520463706e+00,6.885192899027065216e+00,-2.971786467812692401e+00,-8.576601560958296844e-02,-3.158800647928273525e-07,9.963153068011937341e-01,3.028605705066234464e+02
3.161262747976826937e+00,7.114844692866908460e+00,-3.013960053403306638e+00,-9.645334165302467400e-02,-2.105138829287774206e-07,9.953375070215734199e-01,3.052207066117953786e+02
3.069360457411579368e+00,7.315772297355255915e+00,-3.033281769775261427e+00,-1.071209541258579673e-01,-1.052084490491199029e-07,9.942459963143702728e-01,3.075808427169673109e+02
3.009339223538396446e+00,7.398228597655457150e+00,-3.029914682907774992e+00,-1.177652196089313680e-01,0.000000000000000000e+00,9.930414659270077049e-01,3.087826862489645805e+02
2.865407402350940824e+00,7.513811886528385386e+00,-2.995281075853694297e+00,-8.246812114988472109e-02,-4.283286825241355844e-02,9.956728149303260000e-01,3.111428223541365128e+02
2.698119745650193302e+00,7.577663984314827239e+00,-2.931357417901954143e+00,-4.528438699909607262e-02,-8.748319132297434353e-02,9.951361793895667773e-01,3.135029584593084451e+02
2.608661092582446273e+00,7.581767090604577319e+00,-2.886651131085164135e+00,-6.465470063925946205e-03,-1.335891855101801196e-01,9.910157048259019552e-01,3.146291742647071032e+02
2.403923654548442812e+00,7.537018168029742782e+00,-2.764227527357605574e+00,3.364858756023529629e-02,-1.806922621262475326e-01,9.829639255653793706e-01,3.169893103698790355e+02
2.185290331506780426e+00,7.444793996905645805e+00,-2.615131337664434952e+00,7.463590058902422331e-02,-2.282502407343993123e-01,9.707375082626373830e-01,3.193494464750509678e+02
1.956466739627364948e+00,7.311075566137777315e+00,-2.441440904527207856e+00,1.160091310246906399e-01,-2.756615634790232638e-01,9.542287901437456199e-01,3.217095825802229001e+02
1.721115748530044121e+00,7.141370712782006969e+00,-2.244979558640163297e+00,1.572409131241407354e-01,-3.222989582240843309e-01,9.334873736519183618e-01,3.240697186853948324e+02
1.482890867651386335e+00,6.940771776170852725e+00,-2.027334524550497452e+00,1.977957243845859803e-01,-3.675487556670225531e-01,9.087270017022716084e-01,3.264298547905667647e+02
1.245470148692112033e+00,6.714008551043947115e+00,-1.789873378213382438e+00,2.371639758724015390e-01,-4.108504429487416232e-01,8.803153764857329922e-01,3.287899908957386970e+02
1.012590909643438453e+00,6.465497083771367670e+00,-1.533758227066002844e+00,2.748933966160951314e-01,-4.517306708626226408e-01,8.487479139879349210e-01,3.311501270009106292e+02
7.880856002667125937e-01,6.199384808992063789e+00,-1.259957759650307541e+00,3.106133252067685424e-01,-4.898270353791853715e-01,8.146096228351543678e-01,3.335102631060825615e+02
5.759191461313950544e-01,5.919592482226901708e+00,-9.692572897231863660e-01,3.440491261123749256e-01,-5.248991761685617430e-01,7.785313440567928067e-01,3.358703992112544938e+02
3.802281286356415935e-01,5.629853326800824398e+00,-6.622668989988244048e-01,3.750260568628828173e-01,-5.568273217411842113e-01,7.411469425400184496e-01,3.382305353164264261e+02
2.053621821020737148e-01,5.333749780296569654e+00,-3.394277629545841557e-01,4.034638481846201108e-01,-5.856005661191168166e-01,7.030568257040307190e-01,3.405906714215983584e+02
8.466595160255090124e-02,5.093714728354755472e+00,-6.872404099365174435e-02,4.220863445197109431e-01,-5.901076097149475785e-01,6.881977381003943073e-01,3.424821702754498460e+02
-4.087013478359188129e-02,4.792912157940584450e+00,2.819571941746678578e-01,4.444186896563530054e-01,-5.951254056164165807e-01,6.695653663937717326e-01,3.448423063806217783e+02
-1.419638666091947166e-01,4.492480397792468771e+00,6.430337771561878135e-01,4.715980605633851019e-01,-6.006322093195121115e-01,6.456285452183906370e-01,3.472024424857937106e+02
-2.189012850225888207e-01,4.193974850505544971e+00,1.012109320788658229e+00,5.052083392205729551e-01,-6.064645865783505618e-01,6.139749499843951686e-01,3.495625785909656429e+02
-2.716982681935211641e-01,3.898972647103103206e+00,1.386870377110960284e+00,5.474407815902689878e-01,-6.121019357295084395e-01,5.706485879488565338e-01,3.519227146961375752e+02
-3.004867053790265530e-01,3.609087504222684206e+00,1.765250469285177592e+00,6.011760002633035338e-01,-6.161228725486864732e-01,5.089007984173059551e-01,3.542828508013095075e+02
-3.059016871246744151e-01,3.325990691648281317e+00,2.145596684318736624e+00,6.694819247906577120e-01,-6.148047235228715213e-01,4.169041908071468017e-01,3.566429869064814397e+02
-2.887010573606421659e-01,3.051432636218466499e+00,2.526464514884628976e+00,7.525583753876947668e-01,-5.986298429486701655e-01,2.744051799166403183e-01,3.590031230116533720e+02
-2.493860379698860374e-01,2.787259696033242307e+00,2.906414862036426960e+00,8.364176856236440472e-01,-5.454991832308747624e-01,5.325501169312991251e-02,3.613632591168253043e+02
-1.882053162297112614e-01,2.535430564118478891e+00,3.283999113521530955e+00,8.709171795928791759e-01,-4.206199825717565899e-01,-2.541300780138387450e-01,3.637233952219972366e+02
-1.051563015928751593e-01,2.298033871740851275e+00,3.657744123455313190e+00,7.920510860402661946e-01,-2.218054404413080938e-01,-5.687331744263492972e-01,3.660835313271691689e+02
-1.106293561131013346e-03,2.077311573507260700e+00,4.026141711185093897e+00,6.280596554592151604e-01,-2.024672984475038573e-02,-7.779017541534700708e-01,3.684436674323411012e+02
1.210776082402308523e-01,1.875700599443381744e+00,4.387637797139346318e+00,4.640668209719195914e-01,1.286323001543696887e-01,-8.764107011156427873e-01,3.708038035375130335e+02
2.576236862007637574e-01,1.695876188744795510e+00,4.740611515618663674e+00,3.357656773867128130e-01,2.264649836816337580e-01,-9.143166962574398315e-01,3.731639396426849657e+02
4.049417227686128440e-01,1.540781422819204716e+00,5.083353634593508197e+00,2.415012058254180083e-01,2.905861088687883287e-01,-9.258708770219342687e-01,3.755240757478568980e+02
5.595885748526807646e-01,1.413656053929033929e+00,5.414048832821653612e+00,1.720837662632980491e-01,3.341405848161560499e-01,-9.266807686400725386e-01,3.778842118530288303e+02
7.182356261264519759e-01,1.318068795465922927e+00,5.730756877203769584e+00,1.198470503337678572e-01,3.649978542466173481e-01,-9.232622871761092531e-01,3.802443479582007626e+02
8.776378169286304098e-01,1.257953390996698451e+00,6.031392504960689571e+00,7.953604388282707605e-02,3.877221952840521069e-01,-9.183384544968070662e-01,3.826044840633726949e+02
1.034603971717141357e+00,1.237648821785427122e+00,6.313703802035051105e+00,4.767858586619099642e-02,4.050220582387579760e-01,-9.130629139275345807e-01,3.849646201685446272e+02
1.185968161857390513e+00,1.261944058608343910e+00,6.575248853528664839e+00,2.196437538318200475e-02,4.185652488498964319e-01,-9.079210861463956617e-01,3.873247562737165595e+02
1.328561857140085900e+00,1.336127813831398781e+00,6.813370424068694753e+00,8.242578295552722457e-04,4.294190013449196153e-01,-9.031050004750070803e-01,3.896848923788884917e+02
1.354455980272433413e+00,1.361429782861471649e+00,6.855308104149509418e+00,7.775613065119091338e-04,3.489882203002052097e-01,-9.371267883750362682e-01,3.901505209947206367e+02
1.474062396740269065e+00,1.543015584015541730e+00,7.041692607565294360e+00,7.235929389150441357e-04,2.638604579196146549e-01,-9.645605917513476735e-01,3.925106570998925690e+02
1.583470873138923984e+00,1.773015483020254912e+00,7.202272689580618170e+00,6.633287333646924622e-04,1.759069719812340338e-01,-9.844065710890926857e-01,3.948707932050645013e+02
1.683956518588563656e+00,2.046033153296539009e+00,7.337461626560557448e+00,5.982207924753716764e-04,8.724705512603914137e-02,-9.961865254578168294e-01,3.972309293102364336e+02
1.776643498416835776e+00,2.357106990130785285e+00,7.447409419892539795e+00,5.300273656876602468e-04,0.000000000000000000e+00,-9.999998595354860909e-01,3.995910654154083659e+02
1.837530748503482636e+00,2.602358111331509072e+00,7.507906066954455504e+00,4.921682734710640123e-04,0.000000000000000000e+00,-9.999998788851880427e-01,4.012708019283456338e+02
1.916767847714589079e+00,2.975957337081885257e+00,7.568973779546887215e+00,4.543091797829132373e-04,0.000000000000000000e+00,-9.999998968015793022e-01,4.036309380335175661e+02
1.990872114049470731e+00,3.373870403985105515e+00,7.607636588057864024e+00,4.164500847859996854e-04,0.000000000000000000e+00,-9.999999132846597583e-01,4.059910741386894983e+02
2.060745968228947955e+00,3.791528483453219245e+00,7.625387017235771836e+00,3.785909886431147405e-04,0.000000000000000000e+00,-9.999999283344290779e-01,4.083512102438614306e+02
2.127197829010167407e+00,4.224558898216804970e+00,7.623500756052179916e+00,3.407318915170501664e-04,0.000000000000000000e+00,-9.999999419508873721e-01,4.107113463490333629e+02
2.190952500859704610e+00,4.668740566270368042e+00,7.603049885007177267e+00,3.028727935705974555e-04,0.000000000000000000e+00,-9.999999541340344189e-01,4.130714824542052952e+02
2.252660200383884259e+00,5.119960915932937340e+00,7.564913992269685750e+00,2.650136949665482630e-04,0.000000000000000000e+00,-9.999999648838701072e-01,4.154316185593772275e+02
2.312904329868720410e+00,5.574173837799684783e+00,7.509789293913105013e+00,2.271545958676941899e-04,0.000000000000000000e+00,-9.999999742003944370e-01,4.177917546645491598e+02
2.372208088407649740e+00,6.027358249055408734e+00,7.438195852811526620e+00,1.892954964368269454e-04,0.000000000000000000e+00,-9.999999820836074083e-01,4.201518907697210921e+02
2.431039994251705583e+00,6.475476851088031616e+00,7.350482971047490821e+00,1.514363968367381035e-04,0.000000000000000000e+00,-9.999999885335087990e-01,4.225120268748930243e+02
2.489818375981467824e+00,6.914434662626887551e+00,7.246832811744810421e+00,1.135772972302194006e-04,0.000000000000000000e+00,-9.999999935500987203e-01,4.248721629800649566e+02
2.548914874657806973e+00,7.340036907737633065e+00,7.127262287880569147e+00,7.571819778006236995e-05,0.000000000000000000e+00,-9.999999971333772830e-01,4.272322990852368889e+02
2.608656984051267003e+00,7.747945830898634867e+00,6.991623237659615242e+00,3.785909864905863273e-05,0.000000000000000000e+00,-9.999999992833442652e-01,4.295924351904088212e+02
2.639014346971918279e+00,7.943180715410591120e+00,6.914840619385759446e+00,-0.000000000000000000e+00,-0.000000000000000000e+00,-1.000000000000000000e+00,4.307858267497712177e+02
2.699845302663086866e+00,8.303723705481408146e+00,6.747063270744379615e+00,0.000000000000000000e+00,-8.323093136737375053e-02,-9.965302865762382112e-01,4.331459628549431500e+02
2.763380058299805597e+00,8.634851292011534341e+00,6.564211530148030604e+00,0.000000000000000000e+00,-1.690529996888914532e-01,-9.856069618748579675e-01,4.355060989601150823e+02
2.831471660125512102e+00,8.932446036731622740e+00,6.367310444425352323e+00,0.000000000000000000e+00,-2.555921730830412186e-01,-9.667846921929871273e-01,4.378662350652870145e+02
2.905980673322329455e+00,9.192039169271298604e+00,6.157286588982977094e+00,0.000000000000000000e+00,-3.407895620736188791e-01,-9.401396036662167388e-01,4.402263711704589468e+02
2.988797046749441577e+00,9.408779362795685941e+00,5.934957590820745921e+00,0.000000000000000000e+00,-4.226324917621406829e-01,-9.063011513326705293e-01,4.425865072756308791e+02
3.081848048803109474e+00,9.577364286679477701e+00,5.701015832347084533e+00,0.000000000000000000e+00,-4.993855739596659293e-01,-8.663798523286277975e-01,4.449466433808028114e+02
3.159486666800036314e+00,9.662458944830833119e+00,5.519866030144512159e+00,-0.000000000000000000e+00,-5.697624465780825043e-01,-8.218094392676185134e-01,4.466925219112071659e+02
3.276936718439926288e+00,9.721512616349404112e+00,5.265109825838844237e+00,2.374833429805507569e-07,-5.592706487808071225e-01,-8.289851273769865969e-01,4.490526580163790982e+02
3.405768027937686071e+00,9.727654301068053400e+00,5.002206088279216090e+00,4.767457148135109775e-07,-5.486071398484596573e-01,-8.360802629574899392e-01,4.514127941215510305e+02
3.544097964739636897e+00,9.686398412418601112e+00,4.733134841186033448e+00,7.176881220381501852e-07,-5.377742356347822161e-01,-8.430888870616849440e-01,4.537729302267229627e+02
3.690201929529427716e+00,9.602785768863675742e+00,4.459812158599492982e+00,9.602067042099668696e-07,-5.267745644614326705e-01,-8.500050342412954762e-01,4.561330663318948950e+02
3.842490336581080523e+00,9.481434467974082736e+00,4.184110032197693840e+00,1.204192863061862940e-06,-5.156110704472983697e-01,-8.568227494824941504e-01,4.584932024370668273e+02
3.999487550299568372e+00,9.326586602510600343e+00,3.907875781536267912e+00,1.449533417473512849e-06,-5.042870155740412086e-01,-8.635361057427335396e-01,4.608533385422387596e+02
4.159812512017126984e+00,9.142151284833454739e+00,3.632951208469431759e+00,1.696110784406291738e-06,-4.928059804160452306e-01,-8.701392220003093536e-01,4.632134746474106919e+02
4.322160815777160714e+00,8.931744410317657312e+00,3.361191694358823590e+00,1.943803185738067599e-06,-4.811718634711295572e-01,-8.766262817186935008e-01,4.655736107525826242e+02
4.485288011602187375e+00,8.698725559059020895e+00,3.094485438083002915e+00,2.192484880697270292e-06,-4.693888790377930276e-01,-8.829915516191744196e-01,4.679337468577545565e+02
4.647993931863378059e+00,8.446232407715383417e+00,2.834773034321540930e+00,2.442026423351708308e-06,-4.574615535953154843e-01,-8.892294006476600954e-01,4.702938829629264887e+02
4.809107851071731332e+00,8.177212999580763864e+00,2.584067595118336058e+00,2.692294944357770111e-06,-4.453947206546726156e-01,-8.953343190148010944e-01,4.726540190680984210e+02
4.967474301882941923e+00,7.894456200719603522e+00,2.344475623360439798e+00,2.943154455923353264e-06,-4.331935140607898194e-01,-9.013009371830267291e-01,4.750141551732703533e+02
5.121939380517186891e+00,7.600620653005855765e+00,2.118218854603581391e+00,3.194466178686841649e-06,-4.208633597400487369e-01,-9.071240446698090043e-01,4.773742912784422856e+02
5.271337383289300682e+00,7.298262521061640307e+00,1.907657293716859215e+00,3.446088888968532471e-06,-4.084099659009823302e-01,-9.127986085336035060e-01,4.797344273836142179e+02
5.414477622646636235e+00,6.989862319249329659e+00,1.715313685207724870e+00,3.697879284614157775e-06,-3.958393117105787340e-01,-9.183197914075580393e-01,4.820945634887861502e+02
5.550131276120571222e+00,6.677851096944714904e+00,1.543899670953806647e+00,3.949692367426499309e-06,-3.831576344833545478e-01,-9.236829689463370574e-01,4.844546995939580825e+02
5.595329173296539338e+00,6.566873227674170366e+00,1.491463024021078221e+00,4.201381839974508017e-06,-3.703714154351334664e-01,-9.288837465533156257e-01,4.852910356339663736e+02
5.713711871849452173e+00,6.254535991620197244e+00,1.369248580077641941e+00,4.452800514383586408e-06,-3.574873640680555353e-01,-9.339179752589871208e-01,4.876511717391383058e+02
5.821134315837706019e+00,5.945046788244585656e+00,1.275806796847855029e+00,4.703800730549292893e-06,-3.445124012675133685e-01,-9.387817666267096461e-01,4.900113078443102381e+02
5.916093298832025837e+00,5.640879170638185336e+00,1.214874927160461970e+00,4.954234781082731189e-06,-3.314536412052285774e-01,-9.434715065688265012e-01,4.923714439494821704e+02
5.996983158946227910e+00,5.344579407653168523e+00,1.190527311093420471e+00,5.203955340192187385e-06,-3.183183721553299317e-01,-9.479838679646925836e-01,4.947315800546541027e+02
6.064433080851520330e+00,5.059085475911008878e+00,1.209674698600813558e+00,5.452815893634200319e-06,-3.051140363418476387e-01,-9.523158219821051818e-01,4.970917161598260350e+02
6.121775941966377310e+00,4.786830522163497470e+00,1.279144935912397640e+00,5.700671166829867950e-06,-2.918482089463105278e-01,-9.564646480149348040e-01,4.994518522649979673e+02
6.170823680465422179e+00,4.528269011376039543e+00,1.397848638743307115e+00,5.947377548239933400e-06,-2.785285764129398767e-01,-9.604279421622476942e-01,5.018119883701698996e+02
6.189075134138676049e+00,4.418980151489090069e+00,1.470320068392596102e+00,6.192793505125137971e-06,-2.651629141961300284e-01,-9.642036241876842384e-01,5.028640328864992171e+02
6.221694187709663204e+00,4.187178029295793635e+00,1.672542158611110219e+00,6.436779988886435835e-06,-2.517590641003695229e-01,-9.677899429121352703e-01,5.052241689916711493e+02
6.245329611419771609e+00,3.968599253139162730e+00,1.909909186208284648e+00,6.679200827281715610e-06,-2.383249113663977181e-01,-9.711854800075971905e-01,5.075843050968430816e+02
6.259543066191103122e+00,3.763069086903799487e+00,2.177624779443122272e+00,6.919923100950118508e-06,-2.248683616591603263e-01,-9.743891521752691132e-01,5.099444412020150139e+02
6.263796510560952768e+00,3.570554127818354129e+00,2.471207243294242240e+00,7.158817501839600899e-06,-2.113973181130014145e-01,-9.774002117062293715e-01,5.123045773071869462e+02
6.257448145418261554e+00,3.391163088000380021e+00,2.786443089845071608e+00,7.395758671325331050e-06,-1.979196585875319103e-01,-9.802182454381767052e-01,5.146647134123588785e+02
6.239747290481773234e+00,3.225149107088354228e+00,3.119343349646735764e+00,7.630625516022330400e-06,-1.844432132837941496e-01,-9.828431721364921936e-01,5.170248495175308108e+02
6.209828156091508511e+00,3.072913632125425565e+00,3.466102211058532667e+00,7.863301499532099527e-06,-1.709757428647891153e-01,-9.852752383420595450e-01,5.193849856227027431e+02
6.167509068617686552e+00,2.935010937113559759e+00,3.823059785295192192e+00,8.093674908615539838e-06,-1.575249172172646372e-01,-9.875150127416729706e-01,5.217451217278746753e+02
6.114098879162821021e+00,2.812148363165610121e+00,4.186678352182898522e+00,8.321639092549205162e-06,-1.440982949830220405e-01,-9.895633791292683945e-01,5.241052578330466076e+02
6.051605741246164349e+00,2.705184053267258637e+00,4.553515419470088865e+00,8.547092674694518926e-06,-1.307033039780577111e-01,-9.914215280374774064e-01,5.264653939382185399e+02
5.981953179445574698e+00,2.615125918854742881e+00,4.920173834191819751e+00,8.769939735585680426e-06,-1.173472226067985014e-01,-9.930909471289920409e-01,5.288255300433904722e+02
5.907001892442370838e+00,2.543136915197686143e+00,5.283254590732246569e+00,8.990089967117354127e-06,-1.040371623667208228e-01,-9.945734104458346936e-01,5.311856661485624045e+02
5.828571010638800232e+00,2.490547733238948513e+00,5.639321587342623232e+00,9.207458797683831588e-06,-9.078005152596967109e-02,-9.958709666217632206e-01,5.335458022537343368e+02
5.748459068221846380e+00,2.458871004004837157e+00,5.984865998019074596e+00,9.421967488383463219e-06,-7.758262004343371987e-02,-9.969859261686810914e-01,5.359059383589062691e+02
5.668464926691658690e+00,2.449817165378030737e+00,6.316269890322733893e+00,9.633543200652107979e-06,-6.445138578729564527e-02,-9.979208479520267350e-01,5.382660744640782013e+02
5.590408888115054431e+00,2.465312155704461716e+00,6.629768711903159861e+00,9.842119035924388955e-06,-5.139264209457454491e-02,-9.986785249727120339e-01,5.406262105692501336e+02
5.516154240266536668e+00,2.507517115064449964e+00,6.921412256756726222e+00,1.004763404813868640e-05,-3.841244670080431328e-02,-9.992619695742969155e-01,5.429863466744220659e+02
5.447629482445698557e+00,2.578850293222561874e+00,7.187023706488696817e+00,1.025003323009917036e-05,-2.551661205593729054e-02,-9.996743981937936674e-01,5.453464827795939982e+02
5.386851490202156256e+00,2.682011383439918628e+00,7.422156321888207842e+00,1.044926747488393099e-05,-1.271069702998876838e-02,-9.999192157728666874e-01,5.477066188847659305e+02
5.335949889578929017e+00,2.820008523662952182e+00,7.622047335762195175e+00,1.064529351364108455e-05,0.000000000000000000e+00,-9.999999999433388798e-01,5.500667549899378628e+02
5.310559660235377955e+00,2.931710258872698205e+00,7.725601610760779003e+00,0.000000000000000000e+00,2.371239420780988857e-02,-9.997188216498343882e-01,5.515820732465846277e+02
5.282890873549049182e+00,3.138376016692430159e+00,7.848383576821055030e+00,-4.010397950060703987e-02,2.043104906100878457e-02,-9.989866080496182521e-01,5.539422093517565600e+02
5.267185567347824282e+00,3.371609731658230746e+00,7.934819741851015351e+00,-8.047430042244482773e-02,1.708902773916844836e-02,-9.966101806134873842e-01,5.563023454569284922e+02
5.263320742545524844e+00,3.625013305723008727e+00,7.987062113267771046e+00,-1.209127050796651864e-01,1.370196873259539420e-02,-9.925685738543050807e-01,5.586624815621004245e+02
5.271227297683255486e+00,3.892399781739886322e+00,8.006908150957739778e+00,-1.612169404054279720e-01,1.028641830712424647e-02,-9.868653848041908372e-01,5.610226176672723568e+02
5.290891289113042184e+00,4.167728300077451209e+00,7.995819404694666233e+00,-2.011857521725475828e-01,6.859431592020949660e-03,-9.795290916154562044e-01,5.633827537724442891e+02
5.322355054451293199e+00,4.445040563628706032e+00,7.954936668589969173e+00,-2.406238792144165806e-01,3.438149348717382814e-03,-9.706123468619497485e-01,5.657428898776162214e+02
5.365718224136282188e+00,4.718398150868501340e+00,7.885091809707973631e+00,-2.793467611515190185e-01,3.937469914031367576e-05,-9.601902860807274287e-01,5.681030259827881537e+02
5.421138637469433696e+00,4.981820025217590597e+00,7.786816393493937838e+00,-3.073205436537740920e-01,4.933039841493137498e-03,-9.515932684536344555e-01,5.704631620879600860e+02
5.488833171295655511e+00,5.229219590879625734e+00,7.660347195449980440e+00,-3.351216883151120762e-01,9.839721903913783291e-03,-9.421234706203229781e-01,5.728232981931320182e+02
5.569078481323264995e+00,5.454340640549255603e+00,7.505628656207946392e+00,-3.626743664690231239e-01,1.474638636608318308e-02,-9.317992530558473208e-01,5.751834342983039505e+02
5.662211647838402584e+00,5.650691528893668547e+00,7.322312305455201731e+00,-3.899043316246211810e-01,1.963992928409535876e-02,-9.206459066101762012e-01,5.775435704034758828e+02
5.725854631034365205e+00,5.747595274672483434e+00,7.194922589744736641e+00,-4.167399155670320487e-01,2.450735154695327447e-02,-9.086953463583584689e-01,5.789596201506838042e+02
5.845085142813897683e+00,5.868326404144053932e+00,6.953104767134707487e+00,-4.431129674748509051e-01,2.933593081613555809e-02,-8.959856590474999383e-01,5.813197562558557365e+02
5.976361328334505174e+00,5.944527191592964499e+00,6.681820841294456415e+00,-5.316741169329221028e-01,3.040016811131342200e-02,-8.464032509167254137e-01,5.836798923610276688e+02
6.115172173496188357e+00,5.978210345599951125e+00,6.382713643204478871e+00,-6.184519381297179930e-01,3.117821076340799788e-02,-7.852038712316616875e-01,5.860400284661996011e+02
6.255405329742643517e+00,5.974349985589929801e+00,6.058204187696371257e+00,-7.000518346125008673e-01,3.161046133563510940e-02,-7.133920434023778290e-01,5.884001645713715334e+02
6.391016811428968047e+00,5.937596779512206879e+00,5.710450099447205830e+00,-7.733801507515800644e-01,3.166921317339817243e-02,-6.331510114976056647e-01,5.907603006765434657e+02
6.515964441958498554e+00,5.872325991646579979e+00,5.341367984880381670e+00,-8.361960146018910800e-01,3.136526660843850373e-02,-5.475330539926293039e-01,5.931204367817153980e+02
6.617641489859988013e+00,5.788112544467710840e+00,4.976337830017654618e+00,-8.874313235737447680e-01,3.074407577672122124e-02,-4.599135220286383330e-01,5.953369753749220763e+02
6.704827210813530058e+00,5.677862297781845591e+00,4.570342543757262455e+00,-9.048830225685927653e-01,1.197573582961207611e-01,-4.084665109908793834e-01,5.976971114800940086e+02
6.769644645686477169e+00,5.550607288374396653e+00,4.150529228305604335e+00,-9.126128476877807261e-01,2.117288559719637808e-01,-3.497265814661547623e-01,6.000572475852659409e+02
6.812230151181100091e+00,5.409769876576138614e+00,3.720937043204166184e+00,-9.091983227149698088e-01,3.033767047726279031e-01,-2.851683449711546747e-01,6.024173836904378732e+02
6.832524764201925116e+00,5.258630535105251802e+00,3.285503753048992337e+00,-8.943472168997013139e-01,3.912084514551755765e-01,-2.170230474714661406e-01,6.047775197956098054e+02
6.830272211468703780e+00,5.100364195185919769e+00,2.848106557231210978e+00,-8.690200739041133993e-01,4.721496625562645044e-01,-1.479148650396397147e-01,6.071376559007817377e+02
6.805015252569798889e+00,4.938075524787041815e+00,2.412602291692618639e+00,-8.351919860094663139e-01,5.440521584196161831e-01,-8.038404956532353707e-02,6.094977920059536700e+02
6.756090308486720097e+00,4.774833525177969662e+00,1.982867419537532427e+00,-8.934618174880315511e-01,4.439237431594333927e-01,6.824727796990061324e-02,6.118579281111256023e+02
6.682620313935678347e+00,4.613705825506324132e+00,1.562838225152624050e+00,-9.207477097006440125e-01,3.177327599832355243e-01,2.264277993411018264e-01,6.142180642162975346e+02
6.583505717492768916e+00,4.457793052721890525e+00,1.156551628598162962e+00,-9.096478483838261742e-01,1.782955684947597486e-01,3.751686050108749559e-01,6.165782003214694669e+02
6.457413538291509880e+00,4.310263655884400968e+00,7.681870434661475233e-01,-8.657294076430799290e-01,4.290388604163330316e-02,4.986700806189284796e-01,6.189383364266413992e+02
6.369426901225097915e+00,4.232387962671799286e+00,5.574297385689128692e-01,-7.776147757329077148e-01,3.853709418646614204e-02,6.275588840368074850e-01,6.202939073188026669e+02
6.191759518177414989e+00,4.114316507223777286e+00,2.137022581583559455e-01,-6.546787253041843613e-01,3.244461973493757700e-02,7.552106416651871434e-01,6.226540434239745991e+02
5.994184251192354651e+00,4.021733822052167895e+00,-1.060390906839547148e-01,-5.000508268285944746e-01,2.478155818650850870e-02,8.656414066817088582e-01,6.250141795291465314e+02
5.781744670676597586e+00,3.963434754735664090e+00,-4.009703709850155340e-01,-3.273393600463153641e-01,1.622230973833149389e-02,9.447675799005925690e-01,6.273743156343184637e+02
5.559428274349043519e+00,3.948515453942773146e+00,-6.700103962574922578e-01,-1.555229529108686781e-01,7.707418726495602126e-03,9.878022103713162139e-01,6.297344517394903960e+02
5.332222537077277558e+00,3.986468418454496287e+00,-9.118095199241619264e-01,-0.000000000000000000e+00,0.000000000000000000e+00,1.000000000000000000e+00,6.320945878446623283e+02
5.104434268408638786e+00,4.082753006730754031e+00,-1.125904295721512405e+00,-5.024143593103287397e-01,7.294795710168736624e-01,4.641544646212399372e-01,6.344547239498342606e+02
4.878935650587860273e+00,4.234334569327101505e+00,-1.313881326898960200e+00,-4.751915321832051453e-01,6.914951398689360706e-01,5.440840737230032698e-01,6.368148600550061929e+02
4.681989630501816713e+00,4.412370907770876372e+00,-1.460142737659979817e+00,-4.406629694479680670e-01,6.430365317134169034e-01,6.263546648978348674e-01,6.389166241638653219e+02
4.467265228634335728e+00,4.654354444979086125e+00,-1.602681377332250801e+00,-3.983590634082909143e-01,5.833817590627194960e-01,7.077964253889365009e-01,6.412767602690372541e+02
4.261131293984377955e+00,4.932472579826897352e+00,-1.725427036525858604e+00,-3.485695964877317810e-01,5.128903094553380893e-01,7.845016041227623749e-01,6.436368963742091864e+02
4.065695135913768077e+00,5.240957227456718215e+00,-1.830187777034705476e+00,-2.925361676346913131e-01,4.332892110675649611e-01,8.524570664837349820e-01,6.459970324793811187e+02
3.883113455741959541e+00,5.574332856249394119e+00,-1.918585179350933645e+00,-2.323797276517148847e-01,3.475813250356432071e-01,9.083979770249277497e-01,6.483571685845530510e+02
3.715617836903410964e+00,5.927358769553177531e+00,-1.992071156429885859e+00,-1.707253081798547623e-01,2.595161305773411864e-01,9.505284041611056223e-01,6.507173046897249833e+02
3.565540389674154209e+00,6.294973549393977130e+00,-2.051943008215197484e+00,-1.101657380914158185e-01,1.728220267117761555e-01,9.787727301238053901e-01,6.530774407948969156e+02
3.435339839523336547e+00,6.672241080218886289e+00,-2.099356873019786018e+00,-5.279905662406472050e-02,9.053679605818217013e-02,9.944925078546987818e-01,6.554375769000688479e+02
3.327628346398959991e+00,7.054297583982802600e+00,-2.135339715236443947e+00,0.000000000000000000e+00,1.467019652831646516e-02,9.998923868766181888e-01,6.577977130052407801e+02
3.244124404543446971e+00,7.436340070678767233e+00,-2.160817153851974037e+00,0.000000000000000000e+00,9.780364996770440217e-03,9.999521710864625046e-01,6.601578491104127124e+02
3.184596489270506314e+00,7.813631095518569936e+00,-2.176640240136729076e+00,0.000000000000000000e+00,4.890182541979108156e-03,9.999880429858679642e-01,6.625179852155846447e+02
3.147936152781951158e+00,8.181430138633613680e+00,-2.183577101809214493e+00,-0.000000000000000000e+00,0.000000000000000000e+00,1.000000000000000000e+00,6.648781213207565770e+02
3.143209699152389014e+00,8.290793638383505026e+00,-2.183154361000191557e+00,0.000000000000000000e+00,-5.853570996105968149e-02,9.982853152577947364e-01,6.656070794279906977e+02
3.148777582262916042e+00,8.627498549813754636e+00,-2.173867627611644426e+00,0.000000000000000000e+00,-1.168706797253571267e-01,9.931471412739065752e-01,6.679672155331626300e+02
3.175473086322518679e+00,8.942348181509920835e+00,-2.157063600963264438e+00,0.000000000000000000e+00,-8.353053685756402225e-02,9.965052179553739453e-01,6.703273516383345623e+02
3.222895770504721646e+00,9.229979387031779225e+00,-2.133172062701980565e+00,0.000000000000000000e+00,-5.002109726907816301e-02,9.987481613640134537e-01,6.726874877435064946e+02
3.290800829426582474e+00,9.484749123199092580e+00,-2.102549305686782777e+00,0.000000000000000000e+00,-1.645523912509414682e-02,9.998646033865465910e-01,6.750476238486784268e+02
3.379093088907937581e+00,9.700673982447137078e+00,-2.065481828302963674e+00,0.000000000000000000e+00,1.705358841833126693e-02,9.998545769871028943e-01,6.774077599538503591e+02
3.487821876426212331e+00,9.871366242046411443e+00,-2.022189305094563849e+00,0.000000000000000000e+00,-5.405869142971170271e-03,9.999853881826519242e-01,6.797678960590222914e+02
3.617176670184640397e+00,9.989965754951874999e+00,-1.972826864517670975e+00,0.000000000000000000e+00,-2.786260007479053613e-02,9.996117623943168162e-01,6.821280321641942237e+02
3.765604020089387660e+00,1.005248115412864074e+01,-1.918049214904605115e+00,-7.122438430176268598e-02,-1.140793363082553968e-02,9.973950802621344147e-01,6.844881682693661560e+02
3.923165160415587049e+00,1.006090430502191957e+01,-1.861305485914435121e+00,-1.436645087702809465e-01,5.481720441747196804e-03,9.896112669431328390e-01,6.867781785030820174e+02
4.092737839581669590e+00,1.002086426872191360e+01,-1.801343471370592253e+00,-2.161150888306603846e-01,2.253320604706171570e-02,9.761078439419265118e-01,6.891383146082539497e+02
4.262818087397289624e+00,9.936809313343456296e+00,-1.742120628220352963e+00,-2.873290194600197078e-01,3.945575265567657919e-02,9.570189539181122029e-01,6.914984507134258820e+02
4.426744857233424035e+00,9.813114711712589866e+00,-1.685876976119732973e+00,-3.561219261866626629e-01,5.596513032290223455e-02,9.327620692743899822e-01,6.938585868185978143e+02
4.577839485379571194e+00,9.653817033323138119e+00,-1.634883425133784041e+00,-4.214681032439552277e-01,7.180690669145753380e-02,9.039957998239520620e-01,6.962187229237697466e+02
4.709332298126224892e+00,9.462656788763467830e+00,-1.591465322250192882e+00,-4.494224243272512687e-01,7.054972781204348065e-02,8.905291799921339901e-01,6.985788590289416788e+02
4.814288727622842323e+00,9.243118808206130410e+00,-1.558026562336024323e+00,-4.769433337063342382e-01,6.922451259086716269e-02,8.762037567196601096e-01,7.009389951341136111e+02
4.843254405609435764e+00,9.146098644385581622e+00,-1.549569915115253327e+00,-5.260688875627798078e-01,1.237993839391500206e-01,8.413829318893664144e-01,7.018750367926619447e+02
4.880639808048608863e+00,8.879645638829156695e+00,-1.542272730054847552e+00,-5.720129785598059291e-01,1.779124925162742232e-01,8.007173642214746589e-01,7.042351728978338770e+02
4.878297544237040206e+00,8.595335272564108564e+00,-1.551475470412938762e+00,-6.138622846817090029e-01,2.304881247402780775e-01,7.550154434175916363e-01,7.065953090030058092e+02
4.844495028093223077e+00,8.367667557319469651e+00,-1.572350910492251952e+00,-5.779000000801300940e-01,2.240958511032316303e-01,7.847373059984493748e-01,7.083984119355451412e+02
4.760336045376289960e+00,8.059481349394021166e+00,-1.616575972329875821e+00,-5.386941293774819561e-01,2.168366199484529633e-01,8.141194723279666645e-01,7.107585480407170735e+02
4.640477017841486251e+00,7.744314949770924272e+00,-1.674877902155447185e+00,-4.961949901647248473e-01,2.086594255793981223e-01,8.427643655567694791e-01,7.131186841458890058e+02
4.489258852141101208e+00,7.425263443457354562e+00,-1.744406028785791207e+00,-4.504334588590963029e-01,1.995295694997712976e-01,8.702285044949209514e-01,7.154788202510609381e+02
4.310728340797267855e+00,7.105334820509670912e+00,-1.822426082636309674e+00,-4.015372685006536879e-01,1.894342558737210358e-01,8.960371000726496948e-01,7.178389563562328703e+02
4.108679721795247985e+00,6.787484339299438396e+00,-1.906291844745881203e+00,-3.497431455549808166e-01,1.783877406375994346e-01,9.197051408617439305e-01,7.201990924614048026e+02
3.886693972051754820e+00,6.474647891743906314e+00,-1.993417708777091013e+00,-2.954020188203954067e-01,1.664352324495433633e-01,9.407640302840566404e-01,7.225592285665767349e+02
3.648176236803411854e+00,6.169774740932292723e+00,-2.081251871493034589e+00,-2.389749218718856538e-01,1.536547185830937634e-01,9.587915384344380954e-01,7.249193646717486672e+02
3.396391781510324837e+00,5.875859990664085153e+00,-2.167249873729852894e+00,-1.810182897659347312e-01,1.401560535503275917e-01,9.734416569180782686e-01,7.272795007769205995e+02
3.134500841365473800e+00,5.595977139395042599e+00,-2.248848217518517156e+00,-1.221590182117119200e-01,1.260770145804457898e-01,9.844702944548570089e-01,7.296396368820925318e+02
2.865592735863488727e+00,5.333311067844187292e+00,-2.323437785798252886e+00,-6.306155498502928614e-02,1.115765364673773213e-01,9.917529514918591582e-01,7.319997729872644641e+02
2.592719612074099178e+00,5.091191809972905880e+00,-2.388336789117215808e+00,-4.390906037976804836e-03,9.682586269316778571e-02,9.952916518578308613e-01,7.343599090924363963e+02
2.318930180288319320e+00,4.873129461169270371e+00,-2.440762958810750227e+00,5.322373669123587475e-02,8.199873873475968522e-02,9.952102494943119160e-01,7.367200451976083286e+02
2.047303809595673929e+00,4.682850585255756926e+00,-2.477804698335247302e+00,1.092202630462706658e-01,6.726191158322561425e-02,9.917392648222987939e-01,7.390801813027802609e+02
1.780985358794145990e+00,4.524336493424121919e+00,-2.496390893633565700e+00,1.631265039761738422e-01,5.276705620521311008e-02,9.851930681241861665e-01,7.414403174079521932e+02
1.523221129955374176e+00,4.401863783463329405e+00,-2.493259069502939518e+00,2.145731123897794412e-01,3.864488844204808093e-02,9.759431090164348843e-01,7.438004535131241255e+02
1.277396348130026560e+00,4.320047546798011950e+00,-2.464921561786844517e+00,2.632966647850408237e-01,2.500176811756505899e-02,9.643908843949476895e-01,7.461605896182960578e+02
1.175519006081461315e+00,4.303583006859232896e+00,-2.439878448388391519e+00,3.091345548139596278e-01,1.191867448000554289e-02,9.509436219979682248e-01,7.472032591274121387e+02
9.631903590479280464e-01,4.314807638522188959e+00,-2.352001146249271812e+00,3.520140075390099099e-01,-5.478630810373027321e-04,9.359945717483463268e-01,7.495633952325840710e+02
7.717998230372993262e-01,4.376763843529737130e+00,-2.230003396458013487e+00,3.781531607157126995e-01,-5.977937718560902280e-02,9.238109184806254648e-01,7.519235313377560033e+02
6.823824763929324799e-01,4.434565954825871792e+00,-2.147012027051229843e+00,4.054141148196096500e-01,-1.256448800469286697e-01,9.054572102661866406e-01,7.531691757972336063e+02
5.346412331955123776e-01,4.586049795136976748e+00,-1.956370443681400229e+00,4.331385209879071163e-01,-1.980607935349442683e-01,8.792968461792164403e-01,7.555293119024055386e+02
4.078426056671597411e-01,4.773398169273624703e+00,-1.735646872942034014e+00,4.603407142347690217e-01,-2.763576414407384330e-01,8.436307728118592753e-01,7.578894480075774709e+02
3.009390457936523822e-01,4.989868372653550210e+00,-1.488223522421532330e+00,4.857037120594312474e-01,-3.590775918813606249e-01,7.969662396239705071e-01,7.602495841127494032e+02
2.130179181537849020e-01,5.229031890802525950e+00,-1.217205756149850604e+00,5.076726933287415422e-01,-4.438709101160942527e-01,7.384084585113118715e-01,7.626097202179213355e+02
1.432950608512285617e-01,5.484705983404501772e+00,-9.254542933741188859e-01,5.246751010592534126e-01,-5.276088646440721952e-01,6.680905060524775507e-01,7.649698563230932677e+02
9.110894547830920842e-02,5.750887896287236067e+00,-6.156148706720430130e-01,5.354390242294515545e-01,-6.067855385171516680e-01,5.874660514265169775e-01,7.673299924282652000e+02
5.591540035340832049e-02,6.021691009700758990e+00,-2.901456749602587815e-01,5.393037564553518903e-01,-6.781437139784651791e-01,4.992720315265419262e-01,7.696901285334371323e+02
3.728285960343659389e-02,6.291282251816106452e+00,4.865716815255865385e-02,5.363821325775303128e-01,-7.393027877466963327e-01,4.070940872593752369e-01,7.720502646386090646e+02
3.488809878737654524e-02,6.553820119976013103e+00,3.986357863824686598e-01,5.274951539664333167e-01,-7.891286328266536865e-01,3.146821624990287503e-01,7.744104007437809969e+02
4.851241558343959148e-02,6.803392659010516041e+00,7.577481862993298289e-01,5.139212616193655769e-01,-8.277234070911237973e-01,2.252973550866084196e-01,7.767705368489529292e+02
7.803821149475932695e-02,7.033954745958891586e+00,1.124047080374889207e+00,4.970869102988836885e-01,-8.561159024618368862e-01,1.413158347867083386e-01,7.791306729541248615e+02
1.234459274633018105e-01,7.239264023832444828e+00,1.495659696022060059e+00,4.783166475136092499e-01,-8.758417972078338387e-01,6.414305087141762562e-02,7.814908090592967937e+02
1.848112826112338070e-01,7.412814813498431299e+00,1.870768357265854220e+00,4.586938819985956761e-01,-8.885763900208092370e-01,-5.649930499114948212e-03,7.838509451644687260e+02
2.535257591606482341e-01,7.532772698835000114e+00,2.205206432379345660e+00,4.390216570551887521e-01,-8.958922234213534397e-01,-6.809631891416674521e-02,7.859458746254538255e+02
3.469129060889151739e-01,7.625357429179674185e+00,2.581516022434010349e+00,4.361507850460406011e-01,-8.876658822441102492e-01,-1.477219489565040067e-01,7.883060107306257578e+02
4.558526006347238813e-01,7.676102725522655490e+00,2.954719378920335426e+00,4.302864311534108643e-01,-8.732817482878086901e-01,-2.285444711049674782e-01,7.906661468357976901e+02
5.798219402993086691e-01,7.687910092420757735e+00,3.321919587391288786e+00,4.213648275402278598e-01,-8.526583047272646709e-01,-3.089101770606159647e-01,7.930262829409696224e+02
7.184852758892392721e-01,7.663280271502776131e+00,3.680157488057474779e+00,4.095090214200683976e-01,-8.260973173627793598e-01,-3.871247649293407256e-01,7.953864190461415546e+02
8.716863839197822594e-01,7.604337251543310749e+00,4.026380992966625882e+00,3.950226034252588003e-01,-7.942658929855188621e-01,-4.616262926037107972e-01,7.977465551513134869e+02
9.042922372725978875e-01,7.586579803410037570e+00,4.090811665963586030e+00,3.783535305516018687e-01,-7.581180222335275332e-01,-5.311362069035234779e-01,7.982051621390500031e+02
1.085468043791201653e+00,7.464509587859702755e+00,4.406383414636382945e+00,3.557778758138862019e-01,-7.303301007207450013e-01,-5.831295285462617661e-01,8.005652982442219354e+02
1.276569309602482383e+00,7.314787454411204592e+00,4.705647400365338129e+00,3.305847195958767637e-01,-6.980688553790121986e-01,-6.351484994232068360e-01,8.029254343493938677e+02
1.473491180281819801e+00,7.141697129877587535e+00,4.988503661475101936e+00,3.028375610661422912e-01,-6.612594183992360763e-01,-6.863128974351383471e-01,8.052855704545658000e+02
1.672236224982408537e+00,6.949324006883466076e+00,5.254682108353398995e+00,2.727203379402590167e-01,-6.200168090690171274e-01,-7.356648515089089235e-01,8.076457065597377323e+02
1.868870645978269351e+00,6.741596744219314097e+00,5.503739722943985058e+00,2.405436893279639110e-01,-5.746705610825424415e-01,-7.822355653826842392e-01,8.100058426649096646e+02
2.059481609371590416e+00,6.522327714743983762e+00,5.735055965185570592e+00,2.067358184699713552e-01,-5.257656413892626279e-01,-8.251247128138196052e-01,8.123659787700815968e+02
2.240135240067325562e+00,6.295252712197289213e+00,5.947826338767625565e+00,1.718169200888250425e-01,-4.740351826046599326e-01,-8.635795224668987302e-01,8.147261148752535291e+02
2.406834835618817170e+00,6.064070325569696607e+00,6.141054049490098699e+00,1.363601676271414265e-01,-4.203470515889979331e-01,-8.970586719413252696e-01,8.170862509804254614e+02
2.427742637122393798e+00,6.031751231651603540e+00,6.165127011612867136e+00,1.009458522357872395e-01,-3.656330017151875333e-01,-9.252688490234243224e-01,8.174151280403794999e+02
2.558613316884695621e+00,5.801357584780403087e+00,6.316499591574507910e+00,6.611694269445234085e-02,-3.108134220683165250e-01,-9.481685327782825023e-01,8.197752641455514322e+02
2.666228864308362034e+00,5.575212167768352600e+00,6.445084659453957698e+00,3.234344253895778121e-02,-2.567308478435035846e-01,-9.659415994201123734e-01,8.221354002507233645e+02
2.745132938980522130e+00,5.356629872787297408e+00,6.549424062203836883e+00,-0.000000000000000000e+00,-2.041017182454783752e-01,-9.789496864544384724e-01,8.244955363558952968e+02
2.787942785200093532e+00,5.147980096104337377e+00,6.628631604441457270e+00,0.000000000000000000e+00,-1.818021185569631826e-01,-9.833351359979972672e-01,8.268556724610672291e+02
2.786863719388542382e+00,4.988080688696312492e+00,6.672014530776955610e+00,0.000000000000000000e+00,-1.593265224431023031e-01,-9.872259413357145075e-01,8.287741146020989618e+02
2.737652688064389217e+00,4.804554497769239596e+00,6.698982855194972608e+00,0.000000000000000000e+00,-1.367088197613925971e-01,-9.906112752232567598e-01,8.311342507072708941e+02
2.644624227681398487e+00,4.633784788917470365e+00,6.699446613821721463e+00,0.000000000000000000e+00,-1.139838365154902944e-01,-9.934826042831399473e-01,8.334943868124428263e+02
2.515458287965512074e+00,4.474487075436745620e+00,6.673392997337926680e+00,0.000000000000000000e+00,-9.118706962208709965e-02,-9.958337804743001564e-01,8.358545229176147586e+02
2.357442704520136711e+00,4.325413159659044382e+00,6.620534243877388647e+00,0.000000000000000000e+00,-6.835441080105918166e-02,-9.976611020401868757e-01,8.382146590227866909e+02
2.177549793467355332e+00,4.185342060983894719e+00,6.540304655296450775e+00,0.000000000000000000e+00,-4.552186457458671370e-02,-9.989633425935373623e-01,8.405747951279586232e+02
1.982509541520981911e+00,4.053070395901746004e+00,6.431854731592003382e+00,0.000000000000000000e+00,-2.272526552986125353e-02,-9.997417478062008422e-01,8.429349312331305555e+02
1.946993728302458093e+00,4.031228042393288469e+00,6.407997269421945141e+00,-0.000000000000000000e+00,-0.000000000000000000e+00,-1.000000000000000000e+00,8.433446069488545618e+02
1.735924610878460950e+00,3.911430785477238992e+00,6.241888028348522965e+00,2.322099299864710097e-03,0.000000000000000000e+00,-9.999973039237863848e-01,8.457047430540264941e+02
1.520722897048809807e+00,3.797842049754997618e+00,6.048911633079849359e+00,5.047591509787950279e-03,0.000000000000000000e+00,-9.999872608288319364e-01,8.480648791591984264e+02
1.304346201676071404e+00,3.690075279190891511e+00,5.831330504451782915e+00,8.291510679709625589e-03,0.000000000000000000e+00,-9.999656248344981346e-01,8.504250152643703586e+02
1.089735718969022660e+00,3.587771745791203060e+00,5.591151942509223538e+00,1.221718234790088869e-02,0.000000000000000000e+00,-9.999253674427298622e-01,8.527851513695422909e+02
8.798472803117545205e-01,3.490596823303236285e+00,5.330148939722264778e+00,1.706450574875355633e-02,0.000000000000000000e+00,-9.998543907207443349e-01,8.551452874747142232e+02
6.776825233244554436e-01,3.398236166506161560e+00,5.049878564725516661e+00,2.320071838626609761e-02,0.000000000000000000e+00,-9.997308271061571272e-01,8.575054235798861555e+02
4.863204969443505887e-01,3.310391753263088432e+00,4.751698107197346310e+00,3.121763347029177238e-02,0.000000000000000000e+00,-9.995126109061928110e-01,8.598655596850580878e+02
3.089500313747356453e-01,3.226777741445684633e+00,4.436779151281895928e+00,4.213376982695939132e-02,0.000000000000000000e+00,-9.991119784289290706e-01,8.622256957902300201e+02
1.489032091877502129e-01,3.147116087221800917e+00,4.106119723477996253e+00,5.786169337401051577e-02,0.000000000000000000e+00,-9.983246087520292189e-01,8.645858318954019524e+02
9.690284756154073781e-03,3.071131864917949983e+00,3.760554640952933347e+00,8.245681834617654693e-02,0.000000000000000000e+00,-9.965946383099930639e-01,8.669459680005738846e+02
-1.049631615396172390e-01,2.998816900722901302e+00,3.401174878497618348e+00,1.262342653516121127e-01,0.000000000000000000e+00,-9.920004587958307640e-01,8.693061041057458169e+02
-1.919524649889840784e-01,2.930701508722591164e+00,3.029752374529004033e+00,2.247676528867769419e-01,0.000000000000000000e+00,-9.744123881682588140e-01,8.716662402109177492e+02
-2.496353317262906268e-01,2.867607051734695656e+00,2.648350475994250885e+00,5.940845102419983759e-01,0.000000000000000000e+00,-8.044026322001469609e-01,8.740263763160896815e+02
-2.769331160013481230e-01,2.810396195566526867e+00,2.258931838788188262e+00,6.397831896798413798e-01,0.000000000000000000e+00,7.685554438055124393e-01,8.763865124212616138e+02
-2.724394330218007365e-01,2.759979069768162319e+00,1.863375995053768941e+00,2.809595375483699975e-01,0.000000000000000000e+00,9.597196143981876482e-01,8.787466485264335461e+02
-2.344048870632182979e-01,2.717319023320737603e+00,1.463498841612804968e+00,1.836134651980191324e-01,0.000000000000000000e+00,9.829985225817869932e-01,8.811067846316054784e+02
-1.631688148692513884e-01,2.683447825058254743e+00,1.062264182498298792e+00,1.401765847450828495e-01,0.000000000000000000e+00,9.901265197383638528e-01,8.834669207367774106e+02
-6.361251501253357976e-02,2.659517804793283702e+00,6.650071738323157788e-01,1.157233825903465491e-01,0.000000000000000000e+00,9.932814801061420340e-01,8.858270568419493429e+02
5.724205109502074340e-02,2.646855535372300672e+00,2.782969288273307584e-01,1.000677003901501577e-01,0.000000000000000000e+00,9.949806306349018303e-01,8.881871929471212752e+02
1.026524879587270012e-01,2.646880495201942018e+00,1.549862912849439278e-01,8.919323625929909127e-02,0.000000000000000000e+00,9.960143405622194912e-01,8.889728838936447346e+02
2.500697811026191264e-01,2.660812296934481846e+00,-1.941386200885843183e-01,8.120251259299274271e-02,0.000000000000000000e+00,9.966976231277894227e-01,8.913330199988166669e+02
4.030575401028153038e-01,2.689949300901186557e+00,-5.158362714145211525e-01,7.508382385858881902e-02,0.000000000000000000e+00,9.971772256699270587e-01,8.936931561039885992e+02
5.552155470952524485e-01,2.736420243881573455e+00,-8.027539965216624607e-01,7.024879729787714133e-02,0.000000000000000000e+00,9.975295015578246050e-01,8.960532922091605315e+02
7.019283484888909630e-01,2.801156223605965501e+00,-1.050527948817753909e+00,6.633208440999831257e-02,0.000000000000000000e+00,9.977976020104603050e-01,8.984134283143324637e+02
8.420666167329323715e-01,2.882425112769594122e+00,-1.261087297738903379e+00,6.309489297961953791e-02,0.000000000000000000e+00,9.980075322761298162e-01,9.007735644195043960e+02
8.483680873633279163e-01,2.886940257623296979e+00,-1.269433031960606195e+00,6.037458101044126252e-02,0.000000000000000000e+00,9.981757911148786411e-01,9.008847603441251977e+02
9.759637637936952048e-01,2.995834929222105369e+00,-1.415489568402059861e+00,5.805655498841086337e-02,0.000000000000000000e+00,9.983132957257844220e-01,9.032448964492971299e+02
1.097948521479606310e+00,3.115395022605708775e+00,-1.533579544196185473e+00,1.996445768615718874e-01,1.034909367600733987e-01,9.743878431806742846e-01,9.056050325544690622e+02
