2.844996413870506391e+00,2.878235214594565328e+00,4.114403928931502641e+00,8.540621836434002523e-01,-2.165063695640262464e-03,-5.201664146880887740e-01,7.607706035719913551e+00
2.749643535680099227e+00,2.921956065860511043e+00,4.113178082542582104e+00,9.303609119956803841e-01,-2.358487803966914133e-03,-3.666374380308758951e-01,9.129247242863895551e+00
2.668929671164385731e+00,2.958487064876391681e+00,4.114649659549670879e+00,7.924471264557549910e-01,-1.293828344355657800e-01,-5.960600925455716848e-01,1.065078845000787844e+01
2.605389082690867664e+00,2.986414846042066085e+00,4.119442673997463444e+00,5.103410693429623057e-01,-2.765278944277906326e-01,-8.142998934945370193e-01,1.217232965715186133e+01
2.561665786815014112e+00,3.004266994524315226e+00,4.128845142280781033e+00,1.522635445507393159e-01,-3.825078764363641914e-01,-9.113196680995029331e-01,1.369387086429584421e+01
2.540540203154797894e+00,3.010503534742928977e+00,4.145034760223736292e+00,-1.403464077947989275e-01,-4.257102307760083360e-01,-8.939092153187222500e-01,1.521541207143982710e+01
2.543674999704246265e+00,3.005051948164235931e+00,4.167941839833014583e+00,-1.063342024315611645e-01,-2.183098119853592034e-01,-9.700689992903395176e-01,1.662798323756561558e+01
2.571662923042137283e+00,2.988768028104516805e+00,4.201074164575440584e+00,-6.700825643701949219e-02,-0.000000000000000000e+00,-9.977524209789072618e-01,1.814952444470959847e+01
2.623532984834609838e+00,2.964924604521317786e+00,4.241771661332566445e+00,-7.099813870823860895e-02,0.000000000000000000e+00,-9.974764479926158112e-01,1.967106565185358136e+01
2.698634160301102813e+00,2.936415235687634961e+00,4.289158652444435837e+00,-7.534591510624123745e-02,0.000000000000000000e+00,-9.971574565116599898e-01,2.119260685899756425e+01
2.796435443149845934e+00,2.906117830326040430e+00,4.342388220964221723e+00,-8.010171592263934381e-02,0.000000000000000000e+00,-9.967866948882537770e-01,2.271414806614154713e+01
2.915948606203606186e+00,2.876830770907911727e+00,4.400307035638752140e+00,-8.532542972682224947e-02,0.000000000000000000e+00,-9.963531357113968312e-01,2.423568927328553002e+01
2.944911391758970431e+00,2.871251030894083733e+00,4.413212320462458038e+00,-9.108918107443725320e-02,0.000000000000000000e+00,-9.958427391366512227e-01,2.455653531381591748e+01
3.098530056692692103e+00,2.849194314949196283e+00,4.476392833333282084e+00,-9.748059681166769408e-02,0.000000000000000000e+00,-9.952374255649961698e-01,2.607807652095990036e+01
3.268785789376912110e+00,2.833973529659321589e+00,4.539871655848826570e+00,-1.046071671000179532e-01,0.000000000000000000e+00,-9.945136201135250653e-01,2.759961772810388325e+01
3.442506523185694167e+00,2.827999025784385001e+00,4.597919552446514402e+00,-1.126021493164312132e-01,0.000000000000000000e+00,-9.936401541651385116e-01,2.903519456726493786e+01
3.636929961553837742e+00,2.831383085393022636e+00,4.654889514770647274e+00,-1.216326825066314371e-01,0.000000000000000000e+00,-9.925751813068072194e-01,3.055673577440892075e+01
3.837633191511350184e+00,2.844736429406370615e+00,4.704462733147154907e+00,-1.319111260970818322e-01,0.000000000000000000e+00,-9.912615471265894262e-01,3.207827698155290364e+01
4.040564898154777929e+00,2.868396500960640250e+00,4.743728301488512322e+00,-1.437111935150754971e-01,0.000000000000000000e+00,-9.896196708122129149e-01,3.359981818869688652e+01
4.241685973072567784e+00,2.902773640702590807e+00,4.769730997139427053e+00,-1.573913676855119570e-01,0.000000000000000000e+00,-9.875363068657697641e-01,3.512135939584086941e+01
4.436952764804177107e+00,2.948352808040941575e+00,4.779458575245895346e+00,-1.734296273576355352e-01,0.000000000000000000e+00,-9.848462643248395709e-01,3.664290060298485230e+01
4.622300323731771243e+00,3.005695740224338497e+00,4.769828817975797719e+00,-1.924761661258280465e-01,0.000000000000000000e+00,-9.813016485635304154e-01,3.816444181012883519e+01
4.793992221025554556e+00,3.074664832739010034e+00,4.737859927672777971e+00,-2.154354395115444520e-01,0.000000000000000000e+00,-9.765180855480699584e-01,3.968598301727281807e+01
4.836944735363925219e+00,3.096279537471392285e+00,4.722399138771707250e+00,-2.435971309567276921e-01,0.000000000000000000e+00,-9.698765064634006228e-01,4.010310032154525572e+01
4.976789051596092861e+00,3.183485692630491748e+00,4.639921114067274921e+00,-2.788501221678720277e-01,0.000000000000000000e+00,-9.603346340557352701e-01,4.162464152868923861e+01
5.013984349659953210e+00,3.212470470830445901e+00,4.606037219684419703e+00,-3.240371763113416015e-01,0.000000000000000000e+00,-9.460443479922980847e-01,4.209202805385904611e+01
5.114711934495630885e+00,3.311482544114718429e+00,4.466439105655881647e+00,-3.835350268415776420e-01,0.000000000000000000e+00,-9.235263305318535121e-01,4.361356926100302900e+01
5.192440153119386892e+00,3.410595065107900226e+00,4.296037569468101225e+00,-4.641038556354203370e-01,0.000000000000000000e+00,-8.857807918352806897e-01,4.513511046814701189e+01
5.246115823682150570e+00,3.505086754358699874e+00,4.094863969066054210e+00,-5.754883168575642971e-01,0.000000000000000000e+00,-8.178100006483460804e-01,4.665665167529099477e+01
5.276046571140569519e+00,3.593640833354572184e+00,3.866297170736421318e+00,-7.268184346128857554e-01,0.000000000000000000e+00,-6.868296463511708305e-01,4.817819288243497766e+01
5.283489530225407904e+00,3.677327007770673895e+00,3.615393154803535847e+00,-9.015528464998876501e-01,0.000000000000000000e+00,-4.326690016258968319e-01,4.969973408957896055e+01
5.269820288179051460e+00,3.757656245425431862e+00,3.347148520826184193e+00,-9.996751452916450287e-01,0.000000000000000000e+00,-2.548732795191539086e-02,5.122127529672294344e+01
5.236334849644955547e+00,3.836115642608961540e+00,3.066485314365216208e+00,-9.224295608324248885e-01,0.000000000000000000e+00,3.861653859455809190e-01,5.274281650386692633e+01
5.184255034131695972e+00,3.914175311249257216e+00,2.778272188747099136e+00,-7.608738122068230414e-01,0.000000000000000000e+00,6.488998704714435961e-01,5.426435771101090921e+01
5.114733604995615579e+00,3.993295156054248896e+00,2.487345337273528578e+00,-6.164149143402457565e-01,0.000000000000000000e+00,7.874215220445195396e-01,5.578589891815489210e+01
5.028859151202961009e+00,4.074931572351552234e+00,2.198529285871257954e+00,-5.086388961955506938e-01,0.000000000000000000e+00,8.609799494047301049e-01,5.730744012529887499e+01
4.927660742294043494e+00,4.160544094863436904e+00,1.916657635579054997e+00,-4.300982284239863729e-01,0.000000000000000000e+00,9.027820965806468978e-01,5.882898133244285788e+01
4.812112376216447274e+00,4.251602027304850928e+00,1.646593844054387024e+00,-3.718251822940615847e-01,0.000000000000000000e+00,9.283027705506365912e-01,6.035052253958684076e+01
4.683137239022052256e+00,4.349591082470313452e+00,1.393252135446825024e+00,-3.274250608435353427e-01,0.000000000000000000e+00,9.448771504971463786e-01,6.187206374673082365e+01
4.542945223885723749e+00,4.456016881246744887e+00,1.162276826600240565e+00,-2.927041198873870931e-01,0.000000000000000000e+00,9.562030632668722108e-01,6.339360495387480654e+01
4.396375934782449590e+00,4.572395751884664961e+00,9.583290890548739061e-01,-2.649174683949029885e-01,0.000000000000000000e+00,9.642710899634165944e-01,6.491514616101878232e+01
4.249585987720403857e+00,4.700245466518818915e+00,7.820530879981887340e-01,-2.422317924422699720e-01,0.000000000000000000e+00,9.702184077465264567e-01,6.643668736816276521e+01
4.108741927070494349e+00,4.841088551546026686e+00,6.318162568577250227e-01,-2.233906315133365461e-01,0.000000000000000000e+00,9.747290011854949920e-01,6.795822857530674810e+01
3.980046659218686056e+00,4.996458610631044905e+00,5.060979814197731352e-01,-2.075102926407754733e-01,0.000000000000000000e+00,9.782328344766085815e-01,6.947976978245073099e+01
3.869766085863631133e+00,5.167906504761051067e+00,4.034830621292885833e-01,-1.939540595433902059e-01,0.000000000000000000e+00,9.810106129836920763e-01,7.100131098959471387e+01
3.800835247095061487e+00,5.315697147019964319e+00,3.400939838955387984e-01,-1.822529925136868456e-01,0.000000000000000000e+00,9.832516700823884515e-01,7.219678774414104794e+01
3.735843129941223584e+00,5.519305344130203572e+00,2.805339776615092817e-01,-1.720548453073082740e-01,0.000000000000000000e+00,9.850873718641804944e-01,7.371832895128503083e+01
3.691732104276101545e+00,5.736381325249531038e+00,2.414050174119160286e-01,-1.630903155100373592e-01,0.000000000000000000e+00,9.866111437576795540e-01,7.523987015842901371e+01
3.666394624911348377e+00,5.964768932659879397e+00,2.220425295324726378e-01,-1.551502321589761091e-01,0.000000000000000000e+00,9.878908874268532703e-01,7.676141136557299660e+01
3.657788238130549097e+00,6.202375071526268435e+00,2.218669240432961931e-01,-1.480698058331095801e-01,0.000000000000000000e+00,9.889769120664774205e-01,7.828295257271697949e+01
3.663927262694532061e+00,6.447160354386855197e+00,2.403811027191475047e-01,-1.417175406253482761e-01,0.000000000000000000e+00,9.899071363916428501e-01,7.980449377986096238e+01
3.682874647842405924e+00,6.697130033387986181e+00,2.771683218734076748e-01,-1.359872873937486293e-01,0.000000000000000000e+00,9.907105821920395572e-01,8.132603498700494526e+01
3.712733975376877549e+00,6.950325180473997833e+00,3.318904006169250964e-01,-1.307924544677812329e-01,0.000000000000000000e+00,9.914097709092307698e-01,8.284757619414892815e+01
3.751641573258842843e+00,7.204814077032341224e+00,4.042862668878244858e-01,-1.260617264625068235e-01,0.000000000000000000e+00,9.920223995058237154e-01,8.436911740129291104e+01
3.797758708342250600e+00,7.458683775618943912e+00,4.941708350014589191e-01,-1.217358545697228567e-01,0.000000000000000000e+00,9.925625328976402928e-01,8.589065860843689393e+01
3.849263825958481711e+00,7.710031797353454230e+00,6.014342098946607873e-01,-1.177652196089313680e-01,0.000000000000000000e+00,9.930414659270077049e-01,8.741219981558087682e+01
3.903689275407045134e+00,7.957372582234858882e+00,7.255440374911936718e-01,-1.923899806110633548e-01,-3.213863088326875209e-05,9.813185488553567426e-01,8.893374102272485970e+01
3.958132671261464175e+00,8.199944055875199922e+00,8.650333188244885285e-01,-2.753527127823899856e-01,-6.821626783255820025e-05,9.613432679901177114e-01,9.045528222986884259e+01
4.010778402396128151e+00,8.437182805083013548e+00,1.017978560068772298e+00,-3.659519500532074088e-01,-1.080607754061464965e-04,9.306337402948183790e-01,9.197682343701282548e+01
4.038242946832071745e+00,8.564643095513805093e+00,1.108693352451408876e+00,-4.623249524732738758e-01,-1.510089151286188541e-04,8.867105590421783257e-01,9.281499901509987183e+01
4.084528239141118178e+00,8.789497781218122086e+00,1.283592378408046741e+00,-5.611995558830051856e-01,-1.957721622884190402e-04,8.276805060831010641e-01,9.433654022224385471e+01
4.126474499446332267e+00,9.006987484608252714e+00,1.467102662526671208e+00,-6.580122125234046937e-01,-2.404479721020111890e-04,7.530072179964986123e-01,9.585808142938783760e+01
4.163067020616657565e+00,9.216363309153324579e+00,1.657477269910473172e+00,-7.475844546731936768e-01,-2.827729171503708767e-04,6.641666983299153726e-01,9.737962263653182049e+01
4.193262731592513504e+00,9.416849150131483270e+00,1.852998778001840208e+00,-8.252582728660420308e-01,-3.205972977487784258e-04,5.647554163383740056e-01,9.890116384367580338e+01
4.215985530295905725e+00,9.607638606862154873e+00,2.051971892722401769e+00,-8.880107753545521954e-01,-3.523898955035910299e-04,4.598225077957456830e-01,1.004227050508197863e+02
4.230121452848488950e+00,9.787891799801668569e+00,2.252716159751691372e+00,-9.349860724227474496e-01,-3.775222928776993418e-04,3.546842283671535201e-01,1.019442462579637692e+02
4.234513657710246015e+00,9.956732080186602829e+00,2.453558739607641925e+00,-9.672542219833462074e-01,-3.962228495970329732e-04,2.538092060246140980e-01,1.034657874651077520e+02
4.227957202470918219e+00,1.011324261960647064e+01,2.652827215466126987e+00,-9.870806149748543312e-01,-4.092976144529001086e-04,1.602238809176901868e-01,1.049873286722517349e+02
4.209193590050896105e+00,1.025646286653805284e+01,2.848842402797720830e+00,-9.971467708668066976e-01,-4.178022095929972502e-04,7.548604368500086426e-02,1.065088698793957178e+02
4.176905059986517621e+00,1.038538485647771736e+01,3.039911129909618204e+00,-9.999999106229038315e-01,-4.227933115178471378e-04,-0.000000000000000000e+00,1.080304110865397007e+02
4.129988325931750914e+00,1.049918377256875246e+01,3.224212223467195049e+00,-9.950350991606699003e-01,-5.203408112038259391e-03,-9.938851031349453524e-02,1.095519522936836836e+02
4.067831435443418187e+00,1.059744664843979578e+01,3.399681943691746255e+00,-9.761827717985362973e-01,-1.083960959797394819e-02,-2.166787920113321386e-01,1.110734935008276665e+02
3.991849552479574736e+00,1.067814153242179565e+01,3.560588765701548031e+00,-9.363228377117859269e-01,-1.727277914836255687e-02,-3.507152615439490528e-01,1.125620398172107741e+02
3.899054071342994643e+00,1.074450232851660836e+01,3.712364479485108948e+00,-8.682354631318829341e-01,-2.421417869115291208e-02,-4.955611507276146410e-01,1.140835810243547570e+02
3.792488294801230175e+00,1.079427178581929070e+01,3.850578421322202516e+00,-7.682135319063042589e-01,-3.109544822273149073e-02,-6.394380677562675475e-01,1.156051222314987399e+02
3.673910202989264295e+00,1.082687893941050383e+01,3.974733190069832833e+00,-6.401779427945069045e-01,-3.719544613072413297e-02,-7.673256807552641945e-01,1.171266634386427228e+02
3.545022001155571534e+00,1.084166729349456482e+01,4.084270938800399264e+00,-4.961345493557664521e-01,-4.194217769875793062e-02,-8.672320120160673662e-01,1.186482046457867057e+02
3.407476780632999969e+00,1.083789239889783573e+01,4.178570976407244508e+00,-3.511210630860793769e-01,-4.515353972767402468e-02,-9.352406946382106900e-01,1.201697458529306886e+02
3.262937446938074526e+00,1.081471209026743097e+01,4.257141050892811585e+00,-2.169295040597979396e-01,-4.701270324651655313e-02,-9.750545605256277781e-01,1.216912870600746714e+02
3.113135600406328862e+00,1.077117575958821405e+01,4.319809184856787887e+00,-9.950350952679090644e-02,-4.786920813282391496e-02,-9.938850992466826684e-01,1.232128282672186543e+02
3.012758576493347107e+00,1.072881716102374305e+01,4.350392393645084788e+00,-0.000000000000000000e+00,-4.806577624515451230e-02,-9.988441726084960059e-01,1.242086372997169832e+02
2.857095136245361378e+00,1.064250890544631112e+01,4.381202564167007374e+00,-0.000000000000000000e+00,-7.928181305841998719e-03,-9.999685714767146960e-01,1.257301785068609661e+02
2.797581457328244703e+00,1.060196030689950319e+01,4.386924355547189514e+00,7.356584243474044438e-02,-2.787509939383088498e-02,-9.969007200622592713e-01,1.263067786733780054e+02
2.639786150844751766e+00,1.047504883158296529e+01,4.386620010459332697e+00,1.526259824509574869e-01,-4.925984547703603222e-02,-9.870556099351537327e-01,1.278283198805219882e+02
2.481813501834863267e+00,1.032877070058108337e+01,4.371383634074986979e+00,2.360287508693664771e-01,-7.175914410102320062e-02,-9.690929026677138625e-01,1.293498610876659711e+02
2.324491004503926206e+00,1.016454577198443765e+01,4.341825023391434613e+00,3.220215239690196185e-01,-9.488889775297752738e-02,-9.419650923382962837e-01,1.308714022948099398e+02
2.168658803887866693e+00,9.983711446604738526e+00,4.298492398624690125e+00,4.083302764949511277e-01,-1.180277989048176407e-01,-9.051717096679727792e-01,1.323929435019539085e+02
2.015172720111254367e+00,9.787528265961215723e+00,4.241874760228992791e+00,4.923854824574705469e-01,-1.404802913947690024e-01,-8.589655548360276560e-01,1.339144847090978772e+02
1.864907378452637765e+00,9.577185160722248014e+00,4.172403991315375649e+00,5.716623816059569485e-01,-1.615695066348855069e-01,-8.044236545393012028e-01,1.354360259162418458e+02
1.718693424399516889e+00,9.353795987959191649e+00,4.090699253087962894e+00,6.440430359235616020e-01,-1.807346446598094292e-01,-7.433327357906782673e-01,1.369575671233858145e+02
1.577117763747243773e+00,9.118389557537213364e+00,3.997968089768554112e+00,7.080862336844498950e-01,-1.976020635781479406e-01,-6.779139400663097836e-01,1.384791083305297832e+02
1.440454760105388976e+00,8.871917665989563773e+00,3.895924986015414149e+00,7.631298866709557149e-01,-2.120103503723375082e-01,-6.104788181457020402e-01,1.400006495376737519e+02
1.308869674691938600e+00,8.615276413172626491e+00,3.786400295214337408e+00,8.092242352682926798e-01,-2.239897745850464583e-01,-5.431249560973853141e-01,1.415221907448177205e+02
1.182555749933403400e+00,8.349317273672781425e+00,3.671192204522064628e+00,8.469545333967970491e-01,-2.337126144865030175e-01,-4.775420737364376444e-01,1.430437319519616892e+02
1.061734729337344918e+00,8.074850523327908647e+00,3.552074465953267701e+00,8.639380267668607116e-01,-2.556396001509107507e-01,-4.338887884479909474e-01,1.445652731591056579e+02
9.466575231222129627e-01,7.792648485940092407e+00,3.430804022419736032e+00,8.789692702643656652e-01,-2.774384361133625521e-01,-3.878671629538907872e-01,1.460868143662496266e+02
8.376050212141336049e-01,7.503448612970102793e+00,3.309128561501690324e+00,8.917609826465416889e-01,-2.988906015206289624e-01,-3.397451370541025306e-01,1.476083555733935953e+02
7.348890559340895967e-01,7.207956408274214688e+00,3.188794029427090670e+00,9.020666832019073045e-01,-3.197724489496902023e-01,-2.898642440002346943e-01,1.491298967805375639e+02
6.388535174264018401e-01,6.906848209266372329e+00,3.071552137563790197e+00,9.096962130411775371e-01,-3.398654228939543831e-01,-2.386300364573876176e-01,1.506514379876815326e+02
5.498756256118688679e-01,6.600773835251973587e+00,2.959167893698635865e+00,9.145281964233997751e-01,-3.589666983349488749e-01,-1.864968831725326848e-01,1.521729791948255013e+02
4.683673631923440106e-01,6.290359113081777309e+00,2.853427190483783349e+00,9.165178165207434891e-01,-3.768991104192159769e-01,-1.339483205017975853e-01,1.536945204019694700e+02
3.947778047322557660e-01,5.976514401233658624e+00,2.756262648062715481e+00,9.156988705243983562e-01,-3.935192784634124474e-01,-8.147487955177655505e-02,1.552160616091134386e+02
3.284620377209127584e-01,5.660746998648285455e+00,2.670441324780592041e+00,9.121798879437201801e-01,-4.087230698380048821e-01,-2.955172098507207259e-02,1.567376028162574073e+02
2.665454953257052617e-01,5.344874700446418991e+00,2.600019686698640253e+00,9.061349549002353232e-01,-4.224479497294851837e-01,2.138161072750753219e-02,1.582591440234013760e+02
2.050490178301490884e-01,5.030740738785029365e+00,2.549681646277639935e+00,8.977905864051844986e-01,-4.346722246363473596e-01,7.093743787256295841e-02,1.597806852305453447e+02
1.856879914305294976e-01,4.935876017490467227e+00,2.541528506631248963e+00,9.384039298646729144e-01,-2.695123455115875921e-01,-2.162432889857639207e-01,1.602446178139111623e+02
1.192127150733195279e-01,4.628923711466534918e+00,2.539894105128971624e+00,9.590437976337161663e-01,-4.241982833310840167e-02,2.800634792051425737e-01,1.617661590210551310e+02
4.919993637518518120e-02,4.327659932113996355e+00,2.564142404946623710e+00,9.725623925360531441e-01,-1.887152166220099417e-02,2.318755232763928809e-01,1.632877002281990997e+02
1.229410567899911003e-02,4.178254480622362266e+00,2.589611281282575117e+00,9.842587120151519153e-01,7.811567350628034583e-03,1.765609448258620706e-01,1.640594608158026801e+02
-6.114528444984228261e-02,3.891315782473569573e+00,2.663915652266046763e+00,9.928435660888332848e-01,3.791842481411329679e-02,1.132424228618632289e-01,1.655810020229466488e+02
-1.319742546408048667e-01,3.612982384998085994e+00,2.758774829074205570e+00,9.965801268065948015e-01,7.160846116494230806e-02,4.123444123230671221e-02,1.671025432300906175e+02
-1.961209044416562519e-01,3.344065107264458714e+00,2.870211724172527568e+00,9.932705068100046164e-01,1.087966457166193723e-01,-3.971133568905703404e-02,1.686240844372345862e+02
-2.494789003918268799e-01,3.085385610531506284e+00,2.994320523973489578e+00,9.803746099216793519e-01,1.490121545017037696e-01,-1.290775039721308581e-01,1.701456256443785549e+02
-2.878898228637178369e-01,2.837779590293201704e+00,3.127249896244061134e+00,9.553449046377021636e-01,1.912698248734408524e-01,-2.252375796257433949e-01,1.716671668515225235e+02
-3.071252675325049086e-01,2.602099900981516445e+00,3.265186431749128371e+00,9.162086823330342078e-01,2.340304692885145366e-01,-3.252558836703234868e-01,1.731887080586664922e+02
-3.028686253781928128e-01,2.379219624614076878e+00,3.404338248940725453e+00,8.622808741375364017e-01,2.753374445475851306e-01,-4.250423340405186101e-01,1.747102492658104609e+02
-2.706964636391814838e-01,2.170035093885481547e+00,3.540918691203100988e+00,7.947016173856614740e-01,3.131573815077107747e-01,-5.199824936782466711e-01,1.762317904729544296e+02
-2.060594283666512261e-01,1.975468879446381720e+00,3.671130046561925653e+00,7.164473426447399707e-01,3.458245556809376176e-01,-6.058948604381559910e-01,1.777533316800983982e+02
-1.042625871192374015e-01,1.796472750388001360e+00,3.791147219862470052e+00,6.317087042274596165e-01,3.723890211521869720e-01,-6.799047947533388703e-01,1.792748728872423669e+02
3.657610896060034533e-02,1.634033608088125256e+00,3.897113477037843055e+00,5.449165865365408479e-01,3.927111194120398996e-01,-7.408399897464411632e-01,1.807964140943863356e+02
2.125514978585036074e-01,1.488421460347081782e+00,3.986780912683730360e+00,4.598770178678724396e-01,4.073040422222973245e-01,-7.890605462360474887e-01,1.823179553015303043e+02
2.661678433285938339e-01,1.453988555301140684e+00,4.006272629530618801e+00,3.793132624036186229e-01,4.170546055854899570e-01,-8.259460665955464798e-01,1.827189951301521944e+02
4.927672715735455511e-01,1.337171382873880265e+00,4.066095229876283135e+00,3.048224375285086829e-01,4.229613605669063081e-01,-8.533387188253969136e-01,1.842405363372961631e+02
7.393381666784427653e-01,1.233744906109368600e+00,4.113716636486756784e+00,2.370817199011025500e-01,4.259603858099639262e-01,-8.731265703260678857e-01,1.857620775444401318e+02
1.000191603567314402e+00,1.142424890518874303e+00,4.151501959563877797e+00,1.761308141482628153e-01,4.268420460626136670e-01,-8.870083449554191368e-01,1.872836187515841004e+02
1.271251433248894225e+00,1.062834321610178545e+00,4.181608279428497887e+00,1.216260801085629617e-01,4.262311494545779622e-01,-8.964006380363941373e-01,1.888051599587280691e+02
1.520352254494314215e+00,1.002168179542719528e+00,4.203479344829440301e+00,9.748780016386800196e-02,4.099883459807214248e-01,-9.068658583159925346e-01,1.901681798044627101e+02
1.802326951984324133e+00,9.465001890926840744e-01,4.224109199327724440e+00,7.318625467425141085e-02,3.933050160274311202e-01,-9.164905545036553525e-01,1.916897210116066788e+02
2.085056262173459629e+00,9.031128825144402184e-01,4.242898496326041879e+00,4.879083620061192700e-02,3.762268990911248889e-01,-9.252420087215676991e-01,1.932112622187506474e+02
2.365340690251957589e+00,8.723366813770793149e-01,4.261839772867570098e+00,2.437194966870988300e-02,3.588032824509563290e-01,-9.330949643909589586e-01,1.947328034258946161e+02
2.639972923429284357e+00,8.545786994034272332e-01,4.282926219382696686e+00,0.000000000000000000e+00,3.410862924551649744e-01,-9.400319894020574552e-01,1.962543446330385848e+02
2.905895660847153561e+00,8.504311914000411976e-01,4.307763576107567438e+00,2.861740602361921614e-04,3.180383701702250709e-01,-9.480777991303637187e-01,1.977758858401825535e+02
3.160361114229706558e+00,8.607792469795161328e-01,4.337180363705053665e+00,5.742916701624590494e-04,2.946283619520823072e-01,-9.556117404691668593e-01,1.992974270473265221e+02
3.400750360735413480e+00,8.866957689867724923e-01,4.371628118463723567e+00,8.638449891294953291e-04,2.708933391370844102e-01,-9.626089821848721195e-01,2.008189682544704908e+02
3.624392249162789792e+00,9.293389556070362767e-01,4.411580006696300238e+00,1.154308660569018912e-03,2.468728681050638696e-01,-9.690471890290461854e-01,2.023405094616144595e+02
3.731516624145368777e+00,9.608755499274013179e-01,4.435578055596794300e+00,1.445144320543571489e-03,2.226087036198471092e-01,-9.749068040744119923e-01,2.031364552006879194e+02
3.915198317300380371e+00,1.039802494341070194e+00,4.487749333918990224e+00,1.735805422633298787e-03,1.981444404160268846e-01,-9.801712950866059426e-01,2.046579964078318881e+02
4.074852154783574321e+00,1.138809700071632180e+00,4.546694900687683116e+00,2.025742281923812501e-03,1.735251294768772878e-01,-9.848273583772133577e-01,2.061795376149758567e+02
4.208624056932650959e+00,1.259093583657453053e+00,4.611113831275779340e+00,2.314407231572562437e-03,1.487968666993732536e-01,-9.888650747091918269e-01,2.077010788221198254e+02
4.316814688473361805e+00,1.401260853483670576e+00,4.675969881843480280e+00,2.601259780107952925e-03,1.240063626232631444e-01,-9.922780131981682183e-01,2.092226200292637941e+02
4.347842996445647756e+00,1.461207641031525784e+00,4.697785115218017893e+00,2.885771656614004570e-03,9.920050255640702752e-02,-9.950632807085698639e-01,2.097805962258958914e+02
4.410224314350668529e+00,1.645746309508731020e+00,4.746865518640333903e+00,3.167431634372620038e-03,7.442590672148653719e-02,-9.972215159058323009e-01,2.113021374330398601e+02
4.452013091399099842e+00,1.851115666387753933e+00,4.781051941384704129e+00,3.445750031203938333e-03,4.972849996502382020e-02,-9.987568288116738247e-01,2.128236786401838287e+02
4.476288648944652948e+00,2.075705426275666010e+00,4.798954198291321305e+00,3.720262796233882868e-03,2.515310011679395066e-02,-9.996766883344041510e-01,2.143452198473277974e+02
4.486004145539879140e+00,2.317850588394933187e+00,4.801355991825029257e+00,3.990535107475306348e-03,7.430332966762309308e-04,-9.999917617316034235e-01,2.158667610544717661e+02
4.484038730987240484e+00,2.575940082544907916e+00,4.788974382033592825e+00,-2.129063795536638798e-05,-0.000000000000000000e+00,-9.999999997733544088e-01,2.173883022616157348e+02
4.473210224138322033e+00,2.848410387620102568e+00,4.762462869460645898e+00,-1.741718878752641919e-02,0.000000000000000000e+00,-9.998483092623299262e-01,2.189098434687597035e+02
4.456287483722767284e+00,3.133739266340010321e+00,4.722978358366351159e+00,1.064529351364108455e-05,0.000000000000000000e+00,-9.999999999433388798e-01,2.204313846759036721e+02
4.445365200647193760e+00,3.289579633083505872e+00,4.696429721694692638e+00,-6.187751129028237762e-02,0.000000000000000000e+00,-9.980837507927483587e-01,2.212308701532107307e+02
4.422794907785487339e+00,3.596162179975437301e+00,4.636983752259028257e+00,-1.330096006956971721e-01,0.000000000000000000e+00,-9.911147492206797693e-01,2.227524113603546994e+02
4.400338621931044969e+00,3.911416299499250737e+00,4.570284617014517714e+00,-2.142544198016183010e-01,0.000000000000000000e+00,-9.767778885680572509e-01,2.242739525674986680e+02
4.378651061249358989e+00,4.233336741844329509e+00,4.496865291848346935e+00,-3.058600808955341810e-01,0.000000000000000000e+00,-9.520764732491698856e-01,2.257954937746426367e+02
4.357700987140352034e+00,4.559742630622189097e+00,4.416515329300708892e+00,-4.068784504440683403e-01,0.000000000000000000e+00,-9.134823077456036833e-01,2.273170349817866054e+02
4.337444768107405757e+00,4.888472471644973005e+00,4.328994484406834431e+00,-5.144993983461151332e-01,0.000000000000000000e+00,-8.574907399508669981e-01,2.288385761889305741e+02
4.317826299064197570e+00,5.217375030716600470e+00,4.234031681791477375e+00,-6.236365041637143003e-01,0.000000000000000000e+00,-7.817144687636667921e-01,2.303601173960745427e+02
4.298776802247625817e+00,5.544300256147301376e+00,4.131323850212987203e+00,-7.273195072805817007e-01,0.000000000000000000e+00,-6.862990123329130165e-01,2.318816586032185114e+02
4.280214509069885764e+00,5.867090208157622833e+00,4.020534619545390598e+00,-8.182365386410690444e-01,0.000000000000000000e+00,-5.748816981194323494e-01,2.334031998103624801e+02
4.262044221463197502e+00,6.183569957374078108e+00,3.901292874595570837e+00,-8.909163249650160488e-01,0.000000000000000000e+00,-4.541674822252580457e-01,2.349247410175064488e+02
4.244156750484542329e+00,6.491538414500706011e+00,3.773191159537581107e+00,-9.432620647460959740e-01,0.000000000000000000e+00,-3.320492090201871971e-01,2.364462822246504174e+02
4.226428229150122284e+00,6.788759052976425679e+00,3.635783926105065955e+00,-9.765292840110570971e-01,0.000000000000000000e+00,-2.153846732449924417e-01,2.379678234317943861e+02
4.208719295656464077e+00,7.072950485997729686e+00,3.488585618009645728e+00,-9.940769960566719909e-01,0.000000000000000000e+00,-1.086780838575263086e-01,2.394893646389383548e+02
4.190874142313683492e+00,7.341776858694610830e+00,3.331068583348573586e+00,-9.999022819770849724e-01,0.000000000000000000e+00,-1.397950274573750082e-02,2.410109058460823235e+02
4.172719424661528009e+00,7.592838015493915904e+00,3.162660806027239868e+00,-9.976518107410512481e-01,0.000000000000000000e+00,6.848988629791746829e-02,2.425324470532262922e+02
4.151557761392664858e+00,7.823944597068168250e+00,2.983420231098304676e+00,-9.902116113401530084e-01,0.000000000000000000e+00,1.395742267294992622e-01,2.440539882603702608e+02
4.121090616268920037e+00,8.033288564246729990e+00,2.795014615419233017e+00,-9.796754793915599668e-01,0.000000000000000000e+00,2.005890203349053880e-01,2.455755294675142295e+02
4.120629962338077767e+00,8.035749313273790051e+00,2.792617210865401489e+00,-9.838687488489130661e-01,1.422046935165385828e-03,1.788861728054705891e-01,2.455944467544626377e+02
4.076489881278636318e+00,8.222147421052941496e+00,2.597100931466691520e+00,-9.876629131842988851e-01,2.877696990689954885e-03,1.565684795236065019e-01,2.471159879616066064e+02
4.019502429143731348e+00,8.386514547574956069e+00,2.398992024335290907e+00,-9.910195360537523701e-01,4.365828239871663748e-03,1.336458705070428798e-01,2.486375291687505751e+02
3.952026393885361699e+00,8.530296733180223967e+00,2.201885807268721518e+00,-9.938995039373391682e-01,5.885051005828683540e-03,1.101323850997963372e-01,2.501590703758945438e+02
3.876385667126024615e+00,8.654835526215084229e+00,2.009381908974198883e+00,-9.962633926547153074e-01,7.433694671131361661e-03,8.604645628759406695e-02,2.516806115830385124e+02
3.796469618976040294e+00,8.761091503640299649e+00,1.824289655769520735e+00,-9.980718879167937985e-01,9.009797635842016136e-03,6.141115612629381715e-02,2.532021527901824811e+02
3.719337467162267874e+00,8.849350889072423954e+00,1.647830060465842239e+00,-9.992862571476280875e-01,1.061110115032313887e-02,3.625439019294187520e-02,2.547236939973264498e+02
3.691741248864339298e+00,8.878248613932735012e+00,1.579378616947545666e+00,-9.998688674604659932e-01,1.223504773494153708e-02,1.060902871372912393e-02,2.553457754790240983e+02
3.638061256261503562e+00,8.931141265794829920e+00,1.422014660898819560e+00,-9.997837421135613578e-01,1.387878484797291055e-02,-1.548703769439130178e-02,2.568673166861680670e+02
3.600291744323639520e+00,8.965396134069234080e+00,1.277016705900128501e+00,-9.989971451195801544e-01,1.553917437104852632e-02,-4.199092881557621448e-02,2.583888578933120357e+02
3.579368692108628291e+00,8.980601436298659479e+00,1.147349922714067105e+00,-9.974781810857881181e-01,1.721280834596811485e-02,-6.885490168922292487e-02,2.599103991004560044e+02
3.576296875006078846e+00,8.976257259847660208e+00,1.036045396666073204e+00,-9.951993949968824804e-01,1.889603121809815128e-02,-9.602658070578044824e-02,2.614319403075999730e+02
3.585647192488365942e+00,8.961675814994512379e+00,9.816528406461068057e-01,-9.921373547116907332e-01,2.058496862384408266e-02,-1.234492950666144923e-01,2.623500555894099762e+02
3.618869139786303979e+00,8.917002941016907158e+00,9.150230790495896827e-01,-9.882731976243365191e-01,2.227556251064051127e-02,-1.510625240494919974e-01,2.638715967965539448e+02
3.665898303402562064e+00,8.850439084268524326e+00,8.741382003667842460e-01,-9.835931224182977717e-01,2.396361210919480469e-02,-1.788024463649851570e-01,2.653931380036979135e+02
3.721010454177577476e+00,8.760585193862491238e+00,8.613570641192120902e-01,-9.780888072590002702e-01,2.564482000437333375e-02,-2.066025854669044093e-01,2.669146792108418822e+02
3.753123180747640397e+00,8.698007176074431968e+00,8.707401983080315100e-01,-9.717577372104819755e-01,2.731484229059102931e-02,-2.343945382516494647e-01,2.677527011390261009e+02
3.811877079507767441e+00,8.561348567415157262e+00,9.179071065726289724e-01,-9.646034261333363835e-01,2.896934156835518151e-02,-2.621087704387727868e-01,2.692742423461700696e+02
3.825623245323626520e+00,8.524737073366853934e+00,9.358905998171492824e-01,-9.566355217493792695e-01,3.060404135855900737e-02,-2.896754583664561955e-01,2.696308591105411097e+02
3.883631497900395857e+00,8.350544788945150287e+00,1.041010278948462542e+00,-9.478697867823632217e-01,3.221478039555115969e-02,-3.170253542372024613e-01,2.711524003176850783e+02
3.939225311180775346e+00,8.157779704656867636e+00,1.171838323411200866e+00,-9.383279538656240648e-01,3.379756522001960833e-02,-3.440906502355877694e-01,2.726739415248290470e+02
3.990303174707868994e+00,7.948123369990111264e+00,1.324646984338611055e+00,-9.280374569503934135e-01,3.534861953380831479e-02,-3.708058165591537891e-01,2.741954827319730157e+02
4.034756097320806312e+00,7.723200429707304693e+00,1.495803015937016589e+00,-9.170310469242871632e-01,3.686442890001173645e-02,-3.971083893080346039e-01,2.757170239391169844e+02
4.070458204010110492e+00,7.484585634287374667e+00,1.681752054774665828e+00,-9.053463037294418037e-01,3.834177956565500145e-02,-4.229396863184821109e-01,2.772385651462609530e+02
4.095257310701327924e+00,7.233810705155697462e+00,1.879003338209009000e+00,-8.930250611567847052e-01,3.977779043773322504e-02,-4.482454322509185074e-01,2.787601063534049217e+02
4.106965435171491485e+00,6.972371084197054536e+00,2.084114696257834076e+00,-8.801127634501456631e-01,4.116993753862915190e-02,-4.729762783218766642e-01,2.802816475605488904e+02
4.103349202781997995e+00,6.701732596917683971e+00,2.293677752388550761e+00,-8.666577747257196984e-01,4.251607058356022401e-02,-4.970882067094304357e-01,2.818031887676928591e+02
4.082120105478725058e+00,6.423338058552310770e+00,2.504303269599339465e+00,-8.527106629356838718e-01,4.381442163969619802e-02,-5.205428145428245834e-01,2.833247299748368278e+02
4.040925588663544232e+00,6.139040282497026269e+00,2.712771188223959129e+00,-8.383234797090576285e-01,4.506360612427293827e-02,-5.433074771909307543e-01,2.848462711819807964e+02
3.977706374139155621e+00,5.851536025919358508e+00,2.916360342976334064e+00,-8.235490560004468108e-01,4.626261666079119900e-02,-5.653553950043014309e-01,2.863678123891247651e+02
3.892986218505479101e+00,5.563357126598688751e+00,3.113113701523313015e+00,-8.084403312451778900e-01,4.741081052587181599e-02,-5.866655315096216405e-01,2.878893535962687338e+02
3.791438238021009877e+00,5.275842503756608792e+00,3.301748984610007653e+00,-7.930497308765238618e-01,4.850789157705590049e-02,-6.072224541396848974e-01,2.894108948034127025e+02
3.679799754530085565e+00,4.989705492052089575e+00,3.481293831549772566e+00,-7.774286038439476298e-01,4.955388765121987449e-02,-6.270160908173734171e-01,2.909324360105566711e+02
3.643374046400660315e+00,4.899879974960182238e+00,3.534952567723098404e+00,-7.616267284121623904e-01,5.054912446619709565e-02,-6.460414170808920220e-01,2.914130401505520354e+02
3.530088112180643112e+00,4.617811620576655507e+00,3.695236267322929535e+00,-7.456918912273041711e-01,5.149419705014979254e-02,-6.642980889841598735e-01,2.929345813576960040e+02
3.423720593184129246e+00,4.338919407011361251e+00,3.844823860768101564e+00,-7.296695415796840001e-01,5.238993967227670301e-02,-6.817900368236756714e-01,2.944561225648399727e+02
3.327072933050805759e+00,4.063948141408821435e+00,3.981107299133737509e+00,-7.136025200993456608e-01,5.323739516410366107e-02,-6.985250339565532984e-01,2.959776637719839414e+02
3.242661274074593702e+00,3.793673770109998511e+00,4.103144376035472440e+00,-6.975308588719947300e-01,5.403778441287111073e-02,-7.145142537255959603e-01,2.974992049791279101e+02
3.174192876547762054e+00,3.528856358184657260e+00,4.211642915527288977e+00,-6.814916481966857287e-01,5.479247668699065849e-02,-7.297718259405950869e-01,2.990207461862718787e+02
3.125448631489484708e+00,3.270252411385626612e+00,4.307252534292087098e+00,-5.702813585455137613e-01,5.218068916994159784e-02,-8.197904291788439268e-01,3.005422873934158474e+02
3.100299216845088246e+00,3.018617515509514071e+00,4.390567434582753670e+00,-4.381483759803233569e-01,4.819562100329995158e-02,-8.976097051290786721e-01,3.020638286005598161e+02
3.102721656172457543e+00,2.774708854831398064e+00,4.462128958922467525e+00,-2.920989206022718832e-01,4.293719710191843536e-02,-9.554237895761328314e-01,3.035853698077037848e+02
3.136816349801126780e+00,2.539287617216274828e+00,4.522427917543594411e+00,-1.425703442159516054e-01,3.678120806850539853e-02,-9.891010260247262709e-01,3.051069110148477534e+02
3.205408937185868723e+00,2.312842462169863555e+00,4.571530645701423090e+00,0.000000000000000000e+00,3.025577441558382347e-02,-9.995421892619207327e-01,3.066284522219917221e+02
3.271811279954902840e+00,2.172758725938722879e+00,4.595541443072261423e+00,-4.104876274364887938e-03,8.932038461508975957e-02,-9.959944873758009853e-01,3.076085216665811117e+02
3.408425603340509369e+00,1.964104171436544144e+00,4.620018779184526636e+00,-8.323514348767945686e-03,1.499103900285740920e-01,-9.886645508312547070e-01,3.091300628737250804e+02
3.449032216978965781e+00,1.915245563731895029e+00,4.622669637465899761e+00,-1.261159598680578961e-02,2.113799854721867821e-01,-9.773225922838597590e-01,3.095007386474120494e+02
3.643845191726387878e+00,1.723093108116873218e+00,4.618665792851555096e+00,-1.691900842676699948e-02,2.730036328455041628e-01,-9.618642126657026559e-01,3.110222798545560181e+02
3.865080706426405666e+00,1.540965433374126947e+00,4.597105342347090229e+00,-2.119243934861425246e-02,3.340140555364036756e-01,-9.423298208263279907e-01,3.125438210616999868e+02
4.106752646948258700e+00,1.370259335520746191e+00,4.554605770846799295e+00,-2.537851230264370414e-02,3.936476293027160178e-01,-9.189110267363517215e-01,3.140653622688439555e+02
4.362972640907848643e+00,1.212462809060701474e+00,4.487694537909788117e+00,-2.942705652940186614e-02,4.511912547830188025e-01,-8.919419823908617539e-01,3.155869034759879241e+02
4.627796816478613628e+00,1.070256444597023959e+00,4.392477066741043323e+00,-3.329405610911030655e-02,5.060241759204321399e-01,-8.618764640085323503e-01,3.171084446831318928e+02
4.895033843630953285e+00,9.482154698879277088e-01,4.264695969044459467e+00,-3.694388461835731996e-02,5.576491737790008063e-01,-8.292542121526446097e-01,3.186299858902758615e+02
5.096254392567118430e+00,8.728393909813020324e-01,4.140937906533447510e+00,-4.035058424030640162e-02,6.057098217322965938e-01,-7.946618414196665592e-01,3.197900795976979680e+02
5.351867480289045353e+00,7.957161100069943815e-01,3.946511291252661202e+00,-3.491944321100390325e-02,7.628823988098782927e-01,-6.455935858354845402e-01,3.213116208048419367e+02
5.431125211904308969e+00,7.764925799506373627e-01,3.874243528127900404e+00,-2.691981103809592407e-02,8.959207137349451955e-01,-4.433975625489383066e-01,3.218059325258595891e+02
5.658983710733839878e+00,7.342263588286985776e-01,3.627498662195741908e+00,-1.734142838818675258e-02,9.764164866908089380e-01,-2.151978610019967819e-01,3.233274737330035578e+02
5.862860604455791602e+00,7.110378501972680620e-01,3.361448946893889733e+00,-7.895388202740294750e-03,9.999688309368087724e-01,0.000000000000000000e+00,3.248490149401475264e+02
6.033945444593062923e+00,7.094270771747456239e-01,3.082224137905025696e+00,-8.719017734513567069e-03,9.938459565260431283e-01,1.104273219207071999e-01,3.263705561472914951e+02
6.163305962584846753e+00,7.320495520805311296e-01,2.795897346100294723e+00,-9.574599201906794713e-03,9.700980346151846234e-01,2.425244941977592050e-01,3.278920973544354638e+02
6.241851018666516815e+00,7.817285967143823289e-01,2.508511148175409655e+00,-1.036720300710144115e-02,9.190956428441989789e-01,3.938981091686250546e-01,3.294136385615794325e+02
6.260292962773179148e+00,8.614686448711852407e-01,2.226103566006361056e+00,-1.094901897520754452e-02,8.320004345847633598e-01,5.546669233280866473e-01,3.309351797687234011e+02
6.209109253721265098e+00,9.744695885543223079e-01,1.954734026420258619e+00,-1.116592769694189219e-02,7.070627205763770906e-01,7.070626784308435830e-01,3.324567209758673698e+02
6.084642991401027601e+00,1.124107210450068006e+00,1.700498978016343976e+00,-1.094921938079456217e-02,5.546669678886705368e-01,8.320004022403713062e-01,3.339782621830113385e+02
5.895221927087757052e+00,1.311137725593721992e+00,1.467061367177006304e+00,-1.036758247872470763e-02,3.938981472900382474e-01,9.190956222260131536e-01,3.354998033901553072e+02
5.728331261979707989e+00,1.463488997332227148e+00,1.319156821872085716e+00,-9.575124818025412127e-03,2.425245201884581314e-01,9.700980229296817248e-01,3.365536202540187674e+02
5.447723341695417609e+00,1.710143766219858641e+00,1.122518444976475349e+00,-8.719655842381855010e-03,1.104273343100885818e-01,9.938459495511156039e-01,3.380751614611627360e+02
5.139928818437322633e+00,1.977096850472646716e+00,9.395687179368429343e-01,-7.896110403326194946e-03,0.000000000000000000e+00,9.999688252343162942e-01,3.395967026683067047e+02
4.816867610221980733e+00,2.258605395158761908e+00,7.676148877716303387e-01,-5.606886514442452341e-02,3.150157162717528991e-02,9.979298238585889713e-01,3.411182438754506734e+02
4.487125753142868767e+00,2.551971689047362712e+00,6.056257464321891382e-01,-1.048880323432425515e-01,6.344342857944254566e-02,9.924582772294501254e-01,3.426397850825946421e+02
4.367290983389534809e+00,2.661847747203442083e+00,5.505163624576561165e-01,-1.538557965387532256e-01,9.550059178287757800e-02,9.834673511817999536e-01,3.431908159332951982e+02
4.040118979399372812e+00,2.974332968478612393e+00,4.081434054062310635e-01,-2.024538397230405407e-01,1.273341225335165028e-01,9.709780965706780176e-01,3.447123571404391669e+02
3.722963003850719765e+00,3.295621717384176197e+00,2.755580429379645424e-01,-2.501700554781992047e-01,1.586085720287488121e-01,9.551221200564020686e-01,3.462338983475831355e+02
3.422042401219536512e+00,3.625031974977283244e+00,1.530001995476906185e-01,-2.965251879664756451e-01,1.890094308993474082e-01,9.361347381293736447e-01,3.477554395547271042e+02
3.142164512014100186e+00,3.962855760405247008e+00,4.134234757444572861e-02,-3.410962246890796856e-01,2.182585015634783132e-01,9.143394293139293083e-01,3.492769807618710729e+02
3.059189164202372080e+00,4.074507279236067703e+00,9.148127485152725974e-03,-1.171574568825782953e-01,1.546952473444707099e-01,9.809910859665544880e-01,3.497679206425557368e+02
2.827687951983016479e+00,4.429108372024454177e+00,-7.786576386092662616e-02,1.287793513989938798e-01,7.705602568783888329e-02,9.886749959205246574e-01,3.512894618496997055e+02
2.697295303489639196e+00,4.664292748202930383e+00,-1.252166750797996109e-01,3.520140075390099099e-01,-5.478630810373027321e-04,9.359945717483463268e-01,3.522728266006413946e+02
2.525982028335950869e+00,5.036648803693152487e+00,-1.843147046029162683e-01,3.148983089821065229e-01,-4.900974224818447494e-04,9.491252893083853559e-01,3.537943678077853633e+02
2.383455615865264665e+00,5.415471186524874803e+00,-2.297832361571695847e-01,2.768687103840080654e-01,-4.309093998113059602e-04,9.609076602501331887e-01,3.553159090149293320e+02
2.266578178392908871e+00,5.798100411992406222e+00,-2.625323879782633374e-01,2.380868477145519080e-01,-3.705505779593113586e-04,9.712437982492434507e-01,3.568374502220733007e+02
2.172302633508087499e+00,6.181915359457800463e+00,-2.834175928216604023e-01,1.987292333555693291e-01,-3.092956750202553078e-04,9.800543842798179472e-01,3.583589914292172693e+02
2.097659902760230732e+00,6.564321498772608621e+00,-2.932432757949152147e-01,1.589833865624277198e-01,-2.474365398262842806e-04,9.872812271953217422e-01,3.598805326363612380e+02
2.039746360573301054e+00,6.942739320687158155e+00,-2.927663128882529997e-01,1.190434235840522603e-01,-1.852752885544193086e-04,9.928890315510869868e-01,3.614020738435052067e+02
1.995711480978988872e+00,7.314592920343333304e+00,-2.826992850753275444e-01,7.910534552335946046e-02,-1.231169709067481653e-04,9.968662543951627431e-01,3.629236150506491754e+02
1.962745630246065076e+00,7.677298683970949611e+00,-2.637135419759710775e-01,3.936228841533768313e-02,-6.126217748740011334e-05,9.992250029386040566e-01,3.644451562577931441e+02
1.938067953751929196e+00,8.028254029714808837e+00,-2.364420882480981201e-01,0.000000000000000000e+00,0.000000000000000000e+00,1.000000000000000000e+00,3.659666974649371127e+02
1.919474881792879728e+00,8.364863684671020039e+00,-2.010856547151043949e-01,1.166485428797343071e-01,-1.371546479450316434e-03,9.931723094731795820e-01,3.674882386720810814e+02
1.905891367635293321e+00,8.684560715951503695e+00,-1.570169109842287636e-01,0.000000000000000000e+00,-1.168706797253571267e-01,9.931471412739065752e-01,3.690097798792250501e+02
1.896805847336576756e+00,8.984749995739342410e+00,-1.031744187235808102e-01,7.224610153023316439e-01,-5.135847716528860740e-01,4.629047026058139558e-01,3.705313210863690188e+02
1.891705358901755174e+00,9.262759222793150116e+00,-3.905914692645139075e-02,6.871527995801662847e-01,-4.911348744032154601e-01,5.353574181554576761e-01,3.720528622935129874e+02
1.890973281578221199e+00,9.352534961518223611e+00,-1.303695972187548895e-02,6.432626234770396634e-01,-4.627969710831257300e-01,6.099443915585426312e-01,3.725888392901544535e+02
1.891041501428844196e+00,9.583443758591643657e+00,6.970610426194182030e-02,5.902015926090323772e-01,-4.280995793120921378e-01,6.843923072876926250e-01,3.741103804972984221e+02
1.892210143525669297e+00,9.789198368125038741e+00,1.602990760167183892e-01,5.280739727744163670e-01,-3.870360711062267867e-01,7.558709935834954097e-01,3.756319217044423908e+02
1.892769235153259899e+00,9.969704930785207253e+00,2.575398494190148102e-01,4.578868183349878440e-01,-3.402194575106561314e-01,8.213345130494741353e-01,3.771534629115863595e+02
1.891005176763313589e+00,1.012477425026837352e+01,3.602548997883512905e-01,3.815723489986962425e-01,-2.889120111881682829e-01,8.780275578083097665e-01,3.786750041187303282e+02
1.885192728207536028e+00,1.025412104164899851e+01,4.672942384538437688e-01,3.017565567664602377e-01,-2.348792288346459034e-01,9.239993118560706487e-01,3.801965453258742969e+02
1.873586938549265390e+00,1.035736282777491368e+01,5.775264685109984253e-01,2.213255982751569373e-01,-1.800983097713198533e-01,9.584255726793069474e-01,3.817180865330182655e+02
1.854414982404667844e+00,1.043401847954148920e+01,6.898339205114999428e-01,1.429472505499350399e-01,-1.264268912537239720e-01,9.816222922937992701e-01,3.832396277401622342e+02
1.825867865330411899e+00,1.048350639462647926e+01,8.031078471721452283e-01,6.871528046551092506e-02,-7.534937401799367274e-02,9.947867520557572840e-01,3.847611689473062029e+02
1.786091960171023674e+00,1.050514230799714888e+01,9.162436564430098684e-01,0.000000000000000000e+00,-2.786260007479053613e-02,9.996117623943168162e-01,3.862827101544501716e+02
1.734351977816053880e+00,1.049887719468518554e+01,1.028559087271744721e+00,6.567127316678640636e-02,-8.954555883097031765e-02,9.938153132118173749e-01,3.878042513615941402e+02
1.672205747815736165e+00,1.046602671456854416e+01,1.140214201129502669e+00,1.456106647072430704e-01,-1.643190787656578222e-01,9.756007250290050781e-01,3.893257925687381089e+02
1.664907603360752386e+00,1.046055507417951524e+01,1.152120644655672654e+00,2.409304139732762751e-01,-2.530080529212433982e-01,9.369842372098192707e-01,3.894883595422514304e+02
1.591934418842653187e+00,1.039201101297737573e+01,1.263639319368832892e+00,3.494321137900557872e-01,-3.532592746222644187e-01,8.678162724595368527e-01,3.910099007493953991e+02
1.514198037270939823e+00,1.030079239768867261e+01,1.375673481020965649e+00,4.629786845339165513e-01,-4.571666957259791220e-01,7.593743148054417080e-01,3.925314419565393678e+02
