1.722288586721003156e+00,3.284421374154293805e+00,3.847761290717021332e+00,1.739955274764596049e-01,2.303474863256821659e-01,-9.574265465097717698e-01,1.278345616979569712e+02
2.090772373388819716e+00,3.116724485694170710e+00,4.052973488042449723e+00,-1.172313510397501000e-02,1.872998695120954571e-01,-9.822328272787903547e-01,1.295355457568926738e+02
2.468581975617684332e+00,2.935849840597713367e+00,4.232136464555937394e+00,-1.845337107867846826e-01,-1.610013431129671962e-02,-9.826943040734578139e-01,1.312365298158283622e+02
2.846731790143544938e+00,2.746325848731225872e+00,4.385939500872164665e+00,-1.403464077947989275e-01,-4.257102307760083360e-01,-8.939092153187222500e-01,1.329375138747640506e+02
3.216374377918796323e+00,2.552721937905657157e+00,4.515072067183907301e+00,-1.074155735372701870e-01,-3.258299624707450270e-01,-9.393065155304588520e-01,1.346384979336997390e+02
3.568799809311693494e+00,2.359647987396999103e+00,4.620223818103484703e+00,-7.210642328690240743e-02,-2.187357060721936142e-01,-9.731163109360920771e-01,1.363394819926354273e+02
3.895435021336976611e+00,2.171753765012696569e+00,4.702084587503296831e+00,-3.579794879837006061e-02,-1.086099875255356478e-01,-9.934396697693987921e-01,1.380404660515711157e+02
4.173960196991548521e+00,2.001002772892808146e+00,4.759641096916753078e+00,1.064529351364108455e-05,0.000000000000000000e+00,-9.999999999433388798e-01,1.396656768548814682e+02
4.414648984024988287e+00,1.836559624466334917e+00,4.799072881086094533e+00,7.097305770121656138e-06,7.904625453571598875e-03,-9.999687579350001743e-01,1.413666609138171566e+02
4.586290295803068240e+00,1.693505894097981468e+00,4.817724301467237957e+00,3.548652857625561774e-06,1.580925078491906763e-02,-9.998750259792604789e-01,1.430676449727528450e+02
4.673766763143227365e+00,1.579264779755773507e+00,4.816676577269987547e+00,0.000000000000000000e+00,2.371239420780988857e-02,-9.997188216498343882e-01,1.447686290316885334e+02
4.662169418278952371e+00,1.501329200465098213e+00,4.797011074940327191e+00,-2.121482299162075202e-02,3.309265810428538845e-01,-9.434180034559027650e-01,1.464696130906242217e+02
4.656773183892814139e+00,1.496554951018457036e+00,4.794631092678513617e+00,-4.035058424030640162e-02,6.057098217322965938e-01,-7.946618414196665592e-01,1.466103523454194146e+02
4.538930401408922677e+00,1.462143694606595323e+00,4.757289989296762833e+00,-4.469349910959353328e-02,5.422588364032580044e-01,-8.390219576864036410e-01,1.483113364043551030e+02
4.327306329297357479e+00,1.475921825645264196e+00,4.703332266807469075e+00,-4.892772971596095338e-02,4.727641168768650926e-01,-8.798296238809418801e-01,1.500123204632907914e+02
4.306654496315515779e+00,1.479102931511368402e+00,4.698270433822354875e+00,-5.294786357632638024e-02,3.981233841573163512e-01,-9.158025413427440808e-01,1.501509438154035649e+02
4.021373654713301882e+00,1.543300464906119052e+00,4.628453829911875594e+00,-5.665267902815090961e-02,3.196298241975347176e-01,-9.458473711135355622e-01,1.518519278743392533e+02
3.681139369249802229e+00,1.655545857211228711e+00,4.543733617291830562e+00,-5.995652631868091109e-02,2.388740332272469291e-01,-9.691978184052754131e-01,1.535529119332749417e+02
3.302473968116763192e+00,1.811987714856887921e+00,4.444911195931133818e+00,-6.279882427089872321e-02,1.575880424899117060e-01,-9.855061220177124826e-01,1.552538959922106301e+02
2.901773503918319452e+00,2.008699361028220221e+00,4.332788071184397793e+00,-6.514933987889785783e-02,7.746555057412424228e-02,-9.948641374517385172e-01,1.569548800511463185e+02
2.495308979796342808e+00,2.241679355506679183e+00,4.208165847799719472e+00,-6.700824901989284321e-02,0.000000000000000000e+00,-9.977524214770355782e-01,1.586558641100820068e+02
2.099227564690202108e+00,2.506852007858607401e+00,4.071846223925983388e+00,9.311520231452796725e-01,0.000000000000000000e+00,-3.646311969544738796e-01,1.603568481690176952e+02
1.726509271040646221e+00,2.800216725976733212e+00,3.924693240106666092e+00,9.407774159728974350e-01,-3.409953943753916278e-02,-3.373056106937825094e-01,1.620578322279533836e+02
1.383929230994605408e+00,3.118016084030564627e+00,3.767695527807701783e+00,9.489463165736593542e-01,-7.028497814686203438e-02,-3.075075773183149619e-01,1.637588162868890720e+02
1.075111485984783455e+00,3.456615533988518951e+00,3.601904047039850010e+00,9.552618552489064996e-01,-1.084847323553021908e-01,-2.751469620988314935e-01,1.654598003458247604e+02
8.035767072022474977e-01,3.812364357054687236e+00,3.428369823514837655e+00,9.592924440003184339e-01,-1.485538838597733335e-01,-2.401869073743879979e-01,1.671607844047604488e+02
5.720814331366452787e-01,4.181592950644501983e+00,3.248143940787130646e+00,9.605877436274292691e-01,-1.902619493926015481e-01,-2.026612380453926554e-01,1.688617684636961371e+02
3.819570810924477477e-01,4.560614181528547917e+00,3.062277532395561330e+00,9.587021739314290913e-01,-2.332846258133776107e-01,-1.626911953925726795e-01,1.705627525226318255e+02
2.337708281490984696e-01,4.945733040893513177e+00,2.871821774006615424e+00,9.532255450323126045e-01,-2.772022598895468315e-01,-1.204988274215916116e-01,1.722637365815675139e+02
1.279866020817714556e-01,5.333252232482407429e+00,2.677827875557488024e+00,9.438187155890662705e-01,-3.215076270600484842e-01,-7.641385899182219499e-02,1.739647206405032023e+02
6.496511731248169608e-02,5.719472592948363854e+00,2.481347073398005421e+00,9.302502854965390977e-01,-3.656246552559717089e-01,-3.087098642025130901e-02,1.756657046994388907e+02
4.496390172125440399e-02,6.100693512038206201e+00,2.283430622432413681e+00,9.124287700000224266e-01,-4.089379428683111994e-01,1.560444035778984703e-02,1.773666887583745790e+02
6.813731432007806565e-02,6.473213352653544916e+00,2.085129788261069983e+00,8.904241829585992640e-01,-4.508305797126471171e-01,6.242245428104648691e-02,1.790676728173102674e+02
1.326169124589047787e-01,6.833332823872281914e+00,1.887501885970004345e+00,8.644740183456590676e-01,-4.907255315835920562e-01,1.089638667509095216e-01,1.807686568762459558e+02
2.325916678776835389e-01,7.177370165688738091e+00,1.691616318875240887e+00,8.349712837094867002e-01,-5.281245023372320713e-01,1.546203913188132495e-01,1.824696409351816442e+02
3.602271743110572189e-01,7.501676334965241111e+00,1.498548523880870675e+00,8.024358479079647388e-01,-5.626383478255417847e-01,1.988335976347320455e-01,1.841706249941173326e+02
5.075847038923820831e-01,7.802638382802719264e+00,1.309373916791975123e+00,7.674737768929871251e-01,-5.940048432634620346e-01,2.411270369767007371e-01,1.858716090530530209e+02
6.666206130277358977e-01,8.076679882446240910e+00,1.125167884275585450e+00,7.307314328490454036e-01,-6.220923363137893514e-01,2.811275478248834725e-01,1.875725931119887093e+02
8.291857390480710244e-01,8.320261360451562282e+00,9.470057758217962363e-01,6.928513390140141892e-01,-6.468906289047132718e-01,3.185742241013105325e-01,1.892735771709243977e+02
9.870247876098944273e-01,8.529880731161052054e+00,7.759628957050795917e-01,6.544353550138859443e-01,-6.684924784827852573e-01,3.533159666924098330e-01,1.909745612298600861e+02
1.131775710813966329e+00,8.702073734537560057e+00,6.131144949458358084e-01,6.160183099220807312e-01,-6.870699728239536563e-01,3.853002650977997434e-01,1.926755452887957745e+02
1.234639653165167994e+00,8.813667894490631483e+00,4.883587103046534983e-01,5.780527782662788772e-01,-7.028497828167656891e-01,4.145565924371019673e-01,1.940415030885355918e+02
1.343505094583336668e+00,8.917599531667750767e+00,3.417072706084440803e-01,5.409037975323346403e-01,-7.160903296252387751e-01,4.411776531424906334e-01,1.957424871474712802e+02
1.435854380682575426e+00,8.979626716166555056e+00,2.072231735855520340e-01,5.048512704463933298e-01,-7.270626860542610537e-01,4.653010265153361136e-01,1.974434712064069686e+02
1.523605004565591559e+00,9.001397233519789154e+00,8.694061594487184630e-02,4.824618260509669354e-01,-6.723200976620875569e-01,5.614412459761106700e-01,1.991444552653426570e+02
1.618722646937318155e+00,8.984503149831061464e+00,-1.710631180961955794e-02,4.506060238752148672e-01,-6.019404494250821802e-01,6.592586037309632330e-01,2.008454393242783453e+02
1.730582455340486492e+00,8.930808056715328291e+00,-1.028857181332534787e-01,4.085806768123999566e-01,-5.159085045856001139e-01,7.529277823481951293e-01,2.025464233832140337e+02
1.758495973782348676e+00,8.914281235814025095e+00,-1.201246934544089734e-01,3.571743205288639977e-01,-4.167606533563721349e-01,8.359049363227341045e-01,2.029342382029651617e+02
1.892987335007003002e+00,8.826032904801092371e+00,-1.850683061340220037e-01,2.988537419878838364e-01,-3.095451009055618652e-01,9.027005435941671818e-01,2.046352222619008501e+02
2.052648855920289783e+00,8.712034931231304569e+00,-2.296858489202656672e-01,2.372313665782192771e-01,-2.006468142128756404e-01,9.505062517719987669e-01,2.063362063208365385e+02
2.241828160698758676e+00,8.580143088533876750e+00,-2.538893817308053857e-01,1.760469329593554455e-01,-9.604572674873031179e-02,9.796849982361230946e-01,2.080371903797722268e+02
2.465117335645618191e+00,8.438192251779868869e+00,-2.575911171391601084e-01,1.182596635391310463e-01,0.000000000000000000e+00,9.929827047736590195e-01,2.097381744387079152e+02
2.686765589051922198e+00,8.313322558897917602e+00,-2.452869515356392582e-01,5.996870898865811622e-02,5.810562590257695170e-02,9.965076468250022579e-01,2.112063727205059251e+02
2.974508257825701829e+00,8.172192883287131338e+00,-2.130088721128718943e-01,1.270775055453924251e-03,1.158169168312461056e-01,9.932697654245107310e-01,2.129073567794416135e+02
3.281751504223157312e+00,8.039285691553514468e+00,-1.600392750312239487e-01,-1.177652196089313680e-01,0.000000000000000000e+00,9.930414659270077049e-01,2.146083408383773019e+02
3.528179215293444138e+00,7.939971067169551588e+00,-1.037650812994311555e-01,-1.434291880458559432e-01,-1.198434342148999628e-03,9.896598566030825328e-01,2.159754589021942479e+02
3.808148582928225334e+00,7.829769241339843866e+00,-1.708686207899360113e-02,-1.732386738621958799e-01,-2.595117616674449870e-03,9.848764527812730041e-01,2.176764429611299363e+02
4.035354312616713734e+00,7.739984199372091922e+00,8.870498171795046516e-02,-2.081794386901547056e-01,-4.238698803764034441e-03,9.780814663099915984e-01,2.193774270200656247e+02
4.205808837512912568e+00,7.674310039015870721e+00,2.119609381950344207e-01,-2.495228142119325920e-01,-6.192679999336197540e-03,9.683491188110738834e-01,2.210784110790013131e+02
4.328372887773585198e+00,7.635610548466165604e+00,3.510193894356560818e-01,-2.988975202422110011e-01,-8.539757992926819141e-03,9.542470041485481280e-01,2.227793951379370014e+02
4.411983270156490278e+00,7.626708862963126556e+00,5.042185993459934457e-01,-3.583402771355112537e-01,-1.138586606177065773e-02,9.335216161591912698e-01,2.244803791968726898e+02
4.465653538577313952e+00,7.650387154872948514e+00,6.698967260795165579e-01,-4.302411176180946928e-01,-1.486042213518200261e-02,9.025916842984412769e-01,2.261813632558083782e+02
4.498474671482417975e+00,7.709386320100318990e+00,8.463918344620663392e-01,-5.169615916912436715e-01,-1.910287887116656272e-02,8.557954152336231246e-01,2.278823473147440666e+02
4.518806990486434749e+00,7.799780093980301920e+00,1.022506617115409133e+00,-6.196248795128036502e-01,-2.421181620510983942e-02,7.845245672665666081e-01,2.294992984672797434e+02
4.535196316876012546e+00,7.931295731674809169e+00,1.215044367478545606e+00,-7.352567701698897729e-01,-3.011406032563319901e-02,6.771193582301765490e-01,2.312002825262154317e+02
4.547608459041155626e+00,8.096952047443595646e+00,1.413970770001397925e+00,-8.520994641683777848e-01,-3.633150348506557908e-02,5.221173479386393979e-01,2.329012665851511201e+02
4.554814977178836877e+00,8.290341838321960921e+00,1.618099439573875253e+00,-9.471167275647650596e-01,-4.181241304743969073e-02,3.181534637280583055e-01,2.346022506440868085e+02
4.555391917197725959e+00,8.505064443977433442e+00,1.826243952159674278e+00,-9.953081893338945330e-01,-4.529678134019548413e-02,8.549742595600595685e-02,2.363032347030224969e+02
4.547719715914459115e+00,8.734726551595830557e+00,2.037217853665278078e+00,-9.891428398122767973e-01,-4.624009682726867160e-02,-1.394929958582485363e-01,2.380042187619581853e+02
4.529983089179500766e+00,8.972943001344992453e+00,2.249834668809118643e+00,-9.435069643146860585e-01,-4.517109249515471880e-02,-3.282593192774271862e-01,2.397052028208938736e+02
4.500170902927458805e+00,9.213337592505837392e+00,2.462907909990847966e+00,-8.800776485381902603e-01,-4.304323094550549511e-02,-4.728748384226649781e-01,2.414061868798295620e+02
4.456076027145785545e+00,9.449543890360367016e+00,2.675251086160678859e+00,-8.141948561561258568e-01,-4.059361964217836349e-02,-5.791708679252193237e-01,2.431071709387652504e+02
4.395295172754835278e+00,9.675206033926334825e+00,2.885677711688745539e+00,-7.532183048116994906e-01,-3.821251591790017499e-02,-6.566597208020406029e-01,2.448081549977009388e+02
4.315228711391378091e+00,9.883979544628338942e+00,3.093001315234429782e+00,-6.995365045623818112e-01,-3.605524418263658659e-02,-7.136866946718114502e-01,2.465091390566366272e+02
4.213080478086836500e+00,1.006953213599511798e+01,3.296035448615615593e+00,-6.532315469440701516e-01,-3.415903343611575299e-02,-7.563872728383044253e-01,2.482101231155723156e+02
4.085857556830438497e+00,1.022554452447291773e+01,3.493593695677822186e+00,-6.135330577963152843e-01,-3.251157129440674504e-02,-7.889994833477851355e-01,2.499111071745080039e+02
3.930370049007887889e+00,1.034571124144481225e+01,3.684489681163165109e+00,-5.794674581517289536e-01,-3.108379238271596900e-02,-8.144023961128075140e-01,2.516120912334436923e+02
3.763530222206732390e+00,1.042023625261665742e+01,3.851102088066782336e+00,-5.501093736086387631e-01,-2.984385362557058149e-02,-8.345591779308922931e-01,2.531538198322033395e+02
3.548846479760398687e+00,1.045985132994345790e+01,4.026841082169464237e+00,-5.246601001166075751e-01,-2.876242514246115864e-02,-8.508257766696749602e-01,2.548548038911390279e+02
3.304972058838827831e+00,1.045064371176988161e+01,4.192973155155650389e+00,-5.024574301261119924e-01,-2.781425176103374808e-02,-8.641544412372345052e-01,2.565557879500747163e+02
3.046433124862756969e+00,1.039150876243117949e+01,4.348887522642209902e+00,-4.619957122425782936e-01,-2.557443532998990646e-02,-8.865133445848545346e-01,2.582567720090104331e+02
3.012223762013344519e+00,1.038039552478110039e+01,4.368625190358518928e+00,-4.196698737085718944e-01,-2.323142782647615381e-02,-9.073794674019103335e-01,2.584797459001549100e+02
2.756511401402469641e+00,1.027059520995906006e+01,4.513648453378677594e+00,-3.756864786861837668e-01,-2.079666390597716477e-02,-9.265134475563521210e-01,2.601807299590906268e+02
2.512893736403454259e+00,1.011355541669516889e+01,4.647676223150291719e+00,-3.302971799878056669e-01,-1.828407417088939030e-02,-9.436998810659120718e-01,2.618817140180263436e+02
2.284842919318026411e+00,9.913363530590091344e+00,4.770534969477996157e+00,-2.837926587110043974e-01,-1.570974969031668431e-02,-9.587569716181504331e-01,2.635826980769620604e+02
2.075958254234294476e+00,9.674089961725602649e+00,4.882051245615542712e+00,-2.364938827075617200e-01,-1.309145810008525111e-02,-9.715447787759017295e-01,2.652836821358977772e+02
1.889966445301121789e+00,9.399787619473983113e+00,4.982051689560883290e+00,-1.887412467757307588e-01,-1.044804244250891433e-02,-9.819712725811596821e-01,2.669846661948334940e+02
1.730721856078167642e+00,9.094491385896324331e+00,5.070363025350813402e+00,-1.408824308238633694e-01,-7.798749037620644232e-03,-9.899956162522173253e-01,2.686856502537692108e+02
1.602206779973398332e+00,8.762217587671559116e+00,5.146812064355142269e+00,-9.325997313822653734e-02,-5.162539583587848029e-03,-9.956284073866640272e-01,2.703866343127049277e+02
1.508531721779730495e+00,8.406963466498005744e+00,5.211225706570414395e+00,-4.619957197638947105e-02,-2.557443574634319251e-03,-9.989289559480998282e-01,2.720876183716406445e+02
1.451932434017394469e+00,8.032835732406923057e+00,5.263432781394439708e+00,0.000000000000000000e+00,-0.000000000000000000e+00,-1.000000000000000000e+00,2.737886024305763613e+02
1.430176738839942896e+00,7.644181905449558556e+00,5.303266394996385635e+00,-8.301671458234967382e-03,5.312021188737211727e-03,-9.999514311614788875e-01,2.754895864895120781e+02
1.437979662949515847e+00,7.245473283472071202e+00,5.330562598692496934e+00,-1.741188852112007454e-02,1.114140944091095327e-02,-9.997863247383402818e-01,2.771905705484477949e+02
1.469603392122543539e+00,6.841196456691264416e+00,5.345158044080405624e+00,-2.745109930246255811e-02,1.756523633613098906e-02,-9.994688087276871746e-01,2.788915546073835117e+02
1.519451810671344827e+00,6.435864081901756073e+00,5.346889477650453415e+00,-3.856401535403700120e-02,2.467609898970704249e-02,-9.989514036520614759e-01,2.805925386663192285e+02
1.582070087551685766e+00,6.034014298449837277e+00,5.335593742006293994e+00,-5.092574568259169293e-02,3.258604504877444380e-02,-9.981706858522501058e-01,2.822935227252549453e+02
1.652144274760384945e+00,5.640210146436713146e+00,5.311107777084985493e+00,-6.474976235057296192e-02,4.143166967066060774e-02,-9.970410648633513118e-01,2.839945067841906621e+02
1.724500918004284067e+00,5.259038987086647410e+00,5.273268621376563381e+00,-8.029829844791765148e-02,5.138076891151406589e-02,-9.954457292351155395e-01,2.856954908431263789e+02
1.794106679621928491e+00,4.895111925215619664e+00,5.221913413143088434e+00,-9.789596533535918632e-02,6.264105304209124925e-02,-9.932232772367128870e-01,2.873964749020620957e+02
1.856067973739753851e+00,4.553063233736211579e+00,5.156879391637163579e+00,-1.179475821338785008e-01,7.547155516904723027e-02,-9.901476719303728968e-01,2.890974589609978125e+02
1.905630613645171278e+00,4.237549780134585831e+00,5.078003898319922271e+00,-1.409613714783887473e-01,9.019747358754905131e-02,-9.858977165555031785e-01,2.907984430199335293e+02
1.938179471359590789e+00,3.953250454855472107e+00,4.985124378078452878e+00,-1.675785998304600566e-01,1.072291378376928339e-01,-9.800098595817530178e-01,2.924994270788692461e+02
1.949238149395147168e+00,3.704865601531271313e+00,4.878078380442693707e+00,-1.986099201360284894e-01,1.270852634151699301e-01,-9.718042166230075329e-01,2.942004111378049629e+02
1.934468664679628525e+00,3.497116448991381521e+00,4.756703560801758712e+00,-2.350758334526055204e-01,1.504188421021656064e-01,-9.602674234124609631e-01,2.959013951967406797e+02
1.889671144634724742e+00,3.334744544987979342e+00,4.620837681619710757e+00,-2.782407428774796854e-01,1.780389321802189062e-01,-9.438666365706097627e-01,2.976023792556763965e+02
1.810783535393495347e+00,3.222511191574592981e+00,4.470318613650754003e+00,-3.296099430341671299e-01,2.109087320817947253e-01,-9.202580030538516365e-01,2.993033633146121133e+02
1.693881322143546031e+00,3.165196882073869400e+00,4.304984337153859641e+00,-3.908117682095858525e-01,2.500701700833819485e-01,-8.858504794057321385e-01,3.010043473735478301e+02
1.656754800446136100e+00,3.158109532801160135e+00,4.258484747126995984e+00,-4.631889094171287580e-01,2.963823988446530611e-01,-8.352326070311549833e-01,3.014606901996295392e+02
1.497531274151216563e+00,3.162760497412005822e+00,4.077125212613511351e+00,-5.467657692493423927e-01,3.498610329426627974e-01,-7.606868285999620616e-01,3.031616742585652560e+02
1.303960865949664427e+00,3.221852123810944768e+00,3.880809258374765758e+00,-6.381957649060649995e-01,4.083646820762220631e-01,-6.526442002260870456e-01,3.048626583175009728e+02
1.119991078163115938e+00,3.307575214625937843e+00,3.703268873840247721e+00,-7.280153593607685547e-01,4.658378778425853461e-01,-5.029798287227107423e-01,3.063066666857090468e+02
8.937501531813637490e-01,3.438238564814362963e+00,3.481479779734721003e+00,-8.000984822846194389e-01,5.119619720383408179e-01,-3.126297455976663198e-01,3.080076507446447636e+02
6.804886961060112593e-01,3.580135858006076699e+00,3.245343351345828964e+00,-8.381984130294046764e-01,5.363411154944406345e-01,-9.880095255192063164e-02,3.097086348035804804e+02
5.114694449101345741e-01,3.702109812485807172e+00,2.995882399664791418e+00,-8.372176715167684025e-01,5.357135647991368987e-01,1.098978934749949565e-01,3.114096188625161972e+02
4.449655234165809103e-01,3.749932408529767613e+00,2.869321773707730561e+00,-8.061420301047017567e-01,5.158290793114885808e-01,2.899230729613154756e-01,3.122472694398417161e+02
3.080595907517469367e-01,3.793943369433472768e+00,2.607283745835582867e+00,-7.593969138969708377e-01,4.859181090912525480e-01,4.326660587808316971e-01,3.139482534987774329e+02
1.532672139021752089e-01,3.720385712205583673e+00,2.339813283079436701e+00,-7.084065790797323681e-01,4.532907351542497798e-01,5.410061257877498697e-01,3.156492375577131497e+02
4.948732258848286686e-02,3.613443694755399616e+00,2.178252493825441505e+00,-6.594948695854573328e-01,4.219934188826914845e-01,6.220836530645679208e-01,3.166703611902831881e+02
-1.042371433508265804e-01,3.328236672687204578e+00,1.910599682264604748e+00,-6.152719032401487986e-01,3.936963060136841608e-01,6.829668393958996386e-01,3.183713452492189049e+02
-1.690483523186150638e-01,2.946057688858158663e+00,1.647512174289327502e+00,-5.763558329991205209e-01,3.687949363626765731e-01,7.292490991980306037e-01,3.200723293081546217e+02
-1.180559139052653472e-01,2.568972583427270973e+00,1.392247434835567788e+00,-5.424827000600925819e-01,3.471204096355872126e-01,7.649966936856221755e-01,3.217733133670903385e+02
2.715281088689133066e-02,2.269313277178903299e+00,1.148545100858008539e+00,-5.130756336394273198e-01,3.283036013926856622e-01,7.930763768251408719e-01,3.234742974260260553e+02
2.460696460382370276e-01,2.061791251000157033e+00,9.197023223988377572e-01,-4.875013872163854733e-01,3.119393138430470724e-01,8.154975548346107272e-01,3.251752814849617721e+02
5.175981814251453539e-01,1.935145966158667852e+00,7.066823204870333885e-01,-4.651725311499440574e-01,2.976516662118532386e-01,8.336773967577996158e-01,3.268762655438974889e+02
8.200977103139477364e-01,1.880076695123656938e+00,5.090397860378447215e-01,-4.455797594718353682e-01,2.851147670074209994e-01,8.486272724720348437e-01,3.285772496028332057e+02
1.131653369133002851e+00,1.887384300757318112e+00,3.263292949597613735e-01,-4.282948526358661412e-01,2.740546098065554936e-01,8.610793169327657370e-01,3.302782336617689225e+02
1.430074549764289049e+00,1.947972365106102055e+00,1.581053114886536437e-01,-4.129626816396373412e-01,2.642439569023720680e-01,8.715715431412253134e-01,3.319792177207046393e+02
1.692893287718901352e+00,2.052848326977872784e+00,3.922191522508170630e-03,-3.992902047362127393e-01,2.554952985895371786e-01,8.805052440504579359e-01,3.336802017796403561e+02
1.871158332350615794e+00,2.164455869996579462e+00,-1.136389564196565866e-01,-3.870356704729748243e-01,2.476539444728486916e-01,8.881840538810489294e-01,3.350812909673873605e+02
2.029150485926228598e+00,2.322554872034645612e+00,-2.451728184957943368e-01,-3.759991527348566787e-01,2.405919670903780283e-01,8.948408475892528635e-01,3.367822750263230773e+02
2.122418691724935691e+00,2.500176642678133110e+00,-3.633710551218938822e-01,-3.660146601777417574e-01,2.342031529474656593e-01,9.006565114872806532e-01,3.384832590852587941e+02
2.163281011005448562e+00,2.688694936388461354e+00,-4.681260319470192943e-01,-3.569437172991469231e-01,2.283988952127027350e-01,9.057732207049860040e-01,3.401842431441945109e+02
2.163781590382234388e+00,2.879427462152416073e+00,-5.593302151454402349e-01,-3.486702036887489586e-01,2.231048914900977120e-01,9.103039582759365755e-01,3.418852272031302277e+02
2.135691552393724102e+00,3.063637012826019301e+00,-6.368761722191014218e-01,-3.410962246890796856e-01,2.182585015634783132e-01,9.143394293139293083e-01,3.435862112620659445e+02
2.090509862333197688e+00,3.232532589673903001e+00,-7.006565727995545112e-01,-3.936753996209711448e-01,1.763241367571906082e-01,9.021804024307445991e-01,3.452871953210016613e+02
2.039464171383968516e+00,3.377270522228873695e+00,-7.505641894493736421e-01,-4.451357892499489544e-01,1.329419759467770634e-01,8.855396999345604980e-01,3.469881793799373781e+02
1.993511636098732165e+00,3.488955583596210719e+00,-7.864918984630387966e-01,-4.946899642155050403e-01,8.870603731722834229e-02,8.645305536809770874e-01,3.486891634388730949e+02
1.978263821533196243e+00,3.523719626769862501e+00,-7.972908175057685787e-01,-5.416215551445905385e-01,4.425580838732300765e-02,8.394566781119437993e-01,3.493487239459801117e+02
1.946659743502032525e+00,3.587120457389357586e+00,-8.170270047239385214e-01,-5.853361346762493422e-01,2.308247148017714546e-04,8.107906981226526977e-01,3.510497080049158285e+02
1.920366841834109550e+00,3.604029565450063366e+00,-8.226799286987465099e-01,-8.509972854394485045e-03,-3.496798190746399082e-01,9.368306167573433596e-01,3.527506920638515453e+02
1.912565209497046892e+00,3.601653334643068582e+00,-8.221370821664171213e-01,9.704995188563640685e-02,-1.869611885047947012e-04,9.952794943554849061e-01,3.532286871473569931e+02
1.881850290374510681e+00,3.568822567604431395e+00,-8.126182465719572479e-01,-7.069497921097834560e-05,-5.956837023416438096e-05,9.999999957269145590e-01,3.549296712062927099e+02
1.854541868106293734e+00,3.493715332775178872e+00,-7.889938797714661778e-01,1.922783886951269158e-02,-1.574638188873202227e-02,9.996911231324514535e-01,3.566306552652284267e+02
1.847606063293987022e+00,3.381744914260201629e+00,-7.511838442804636973e-01,3.992137916602008646e-02,-3.256704590340114835e-02,9.986719536497500327e-01,3.583316393241641435e+02
1.849985205300679336e+00,3.346873245651208251e+00,-7.390128580557876470e-01,6.211747883630260730e-02,-5.060896657109971442e-02,9.967849072521246523e-01,3.587872897680029496e+02
1.873655638877629759e+00,3.204327109357049341e+00,-6.859456442729701120e-01,8.592473946493989212e-02,-6.996039892755748224e-02,9.938422821201456925e-01,3.604882738269386664e+02
1.910769299074126293e+00,3.045784022900816623e+00,-6.189381500045613160e-01,1.114491310278570430e-01,-9.070745485041913081e-02,9.896217705910145268e-01,3.621892578858743832e+02
1.941470313773528744e+00,2.881657325770845546e+00,-5.388513472171820862e-01,1.387887250907284264e-01,-1.129298214143099333e-01,9.838620559931267051e-01,3.638902419448101000e+02
1.957719477886351367e+00,2.717979697767686886e+00,-4.468250522394068835e-01,1.680264353608755534e-01,-1.366948595883760165e-01,9.762589986176987145e-01,3.655912260037458168e+02
1.956500463446459559e+00,2.559093322409233817e+00,-3.440136579300830943e-01,1.992203670387185377e-01,-1.620497594035711086e-01,9.664632020072998486e-01,3.672922100626815336e+02
1.934925230637933424e+00,2.409354079680256167e+00,-2.315716377937361847e-01,2.323914744641297769e-01,-1.890115074583307853e-01,9.540801080856455840e-01,3.689931941216172504e+02
1.890233817786489467e+00,2.273131020739175057e+00,-1.106535373488719692e-01,2.675084757388793144e-01,-2.175546252295006144e-01,9.386741716107421807e-01,3.706941781805529672e+02
1.819794142598381015e+00,2.154805843747847227e+00,1.758603450410619121e-02,3.044704444835603097e-01,-2.475970199393057181e-01,9.197790300681778497e-01,3.723951622394886840e+02
1.721101814636866845e+00,2.058772370765499460e+00,1.519924141153206343e-01,3.430882525379268522e-01,-2.789849023555365792e-01,8.969157570408401448e-01,3.740961462984244008e+02
1.591779959027380453e+00,1.989436025648085637e+00,2.914108917181323366e-01,3.830670763701764514e-01,-3.114785703884844215e-01,8.696210181394831151e-01,3.757971303573601176e+02
1.429579051383499833e+00,1.951213312894260810e+00,4.346867200620968541e-01,4.239933800095036509e-01,-3.447418326908469610e-01,8.374859297331942454e-01,3.774981144162958344e+02
1.232376763945957965e+00,1.948531297379127780e+00,5.806651230461205015e-01,4.653308211340638767e-01,-3.783386865698802892e-01,8.002043896076025398e-01,3.791990984752315512e+02
9.981778229273120528e-01,1.985827084917015872e+00,7.281913043517687090e-01,5.064298402487957818e-01,-4.117411188328758409e-01,7.576266019404486185e-01,3.809000825341672680e+02
7.640043737211542618e-01,2.052272864610981351e+00,8.573536327618769270e-01,5.465546226411198694e-01,-4.443510278211043607e-01,7.098099805891369130e-01,3.823848749637331821e+02
4.690626409841900935e-01,2.169321907097819579e+00,1.004950057614987680e+00,5.849282244441311729e-01,-4.755369086202861917e-01,6.570567865782207528e-01,3.840858590226688989e+02
1.682252764289548508e-01,2.330872172950566590e+00,1.151841663536220972e+00,6.207921672242243671e-01,-5.046822961849078970e-01,5.999273831311415783e-01,3.857868430816046157e+02
-1.040757325690608026e-01,2.533040948697208083e+00,1.297906867945728626e+00,6.534719630576051319e-01,-5.312390252913533617e-01,5.392211897775650575e-01,3.874878271405403325e+02
-3.230678344579200334e-01,2.771553454330161870e+00,1.442965566451718251e+00,6.824368089328373133e-01,-5.547757471069835189e-01,4.759242295108062626e-01,3.891888111994760493e+02
-4.831768105551182968e-01,3.041441797431676974e+00,1.586816139366475031e+00,7.073418564506395168e-01,-5.750122790059257749e-01,4.111306083294872238e-01,3.908897952584117661e+02
-5.885053003071655242e-01,3.337409650713671017e+00,1.729262136803525696e+00,7.280454317057509783e-01,-5.918335912000137755e-01,3.459520916249558820e-01,3.925907793173474829e+02
-6.433047167805312494e-01,3.654180358961981678e+00,1.870107119354528447e+00,7.445999310997984955e-01,-6.052823963461256840e-01,2.814323422772632699e-01,3.942917633762831997e+02
-6.519755503537343344e-01,3.986497546266552394e+00,2.009154659555982381e+00,7.572213159374501235e-01,-6.155343452957898753e-01,2.184796293736320505e-01,3.959927474352189165e+02
-6.190676855787928812e-01,4.329125724960740662e+00,2.146208343355878956e+00,7.662459515457014092e-01,-6.228629388597696215e-01,1.578255401853373707e-01,3.976937314941546333e+02
-5.492807312253281671e-01,4.676850906338780867e+00,2.281071771580283070e+00,7.720841653844215946e-01,-6.276017757081546744e-01,1.000102629264229132e-01,3.993947155530903501e+02
-4.474643635229891281e-01,5.024481213220465925e+00,2.413548561399835535e+00,7.751779837626913139e-01,-6.301101994196626199e-01,4.538975740100121420e-02,4.010956996120260669e+02
-3.186186826192178301e-01,5.366847494432165355e+00,2.543442347796165848e+00,7.759674360986091868e-01,-6.307459113948519214e-01,-5.842377361003429567e-03,4.027966836709617837e+02
-1.678945822698263424e-01,5.698803941273445695e+00,2.670556785028213920e+00,7.748668689364975881e-01,-6.298457210918302351e-01,-5.362558201885739284e-02,4.044976677298975005e+02
-5.941327802972927452e-04,6.015228706038726614e+00,2.794695548098448334e+00,7.722506071147761109e-01,-6.277138943047260167e-01,-9.800136074389348417e-02,4.061986517888332173e+02
1.778290227833677906e-01,6.311024522663485570e+00,2.915662334218973584e+00,7.684461852079286226e-01,-6.246166546981404277e-01,-1.390844891175353482e-01,4.078996358477689341e+02
3.617692590945241204e-01,6.581119329564640630e+00,3.033260864277521840e+00,7.637330520853509164e-01,-6.207811336813487957e-01,-1.770384399436856493e-01,4.096006199067046509e+02
5.454685457572199248e-01,6.820466894744980912e+00,3.147294884303317719e+00,7.583448197979372196e-01,-6.163972007221267813e-01,-2.120557125558283351e-01,4.113016039656403677e+02
7.230160111684323931e-01,7.024047443231488330e+00,3.257568166932807152e+00,7.524735169035285942e-01,-6.116209224177997505e-01,-2.443429017173093798e-01,4.130025880245760845e+02
8.883474930274986026e-01,7.186868286917340143e+00,3.363884512875244592e+00,7.462747372247191535e-01,-6.065787489362847174e-01,-2.741099011693446941e-01,4.147035720835118013e+02
1.035245075469679144e+00,7.303964456877758415e+00,3.466047752378134561e+00,7.398729544668914970e-01,-6.013718348825666249e-01,-3.015624768740438055e-01,4.164045561424475181e+02
1.132901018192644216e+00,7.363150351218175516e+00,3.541255584648044241e+00,7.333665672010738490e-01,-5.960801406860765095e-01,-3.268974517970124616e-01,4.176999776462899376e+02
1.241551905661859134e+00,7.400518138620427067e+00,3.636447317559380554e+00,7.268324470114424507e-01,-5.907661299070772198e-01,-3.502998340364623653e-01,4.194009617052256544e+02
1.333106884538666881e+00,7.392065565572417896e+00,3.727027603566674951e+00,6.791904838708451297e-01,-6.037278256026719081e-01,-4.173883074696234652e-01,4.211019457641613712e+02
1.420385099085067049e+00,7.346349321194025173e+00,3.812883638265811115e+00,6.229224888524316217e-01,-6.129653438980796620e-01,-4.860463558775039439e-01,4.228029298230970880e+02
1.516463604008166488e+00,7.271865776032607975e+00,3.893902652521561425e+00,5.580867889208697141e-01,-6.174200253526888060e-01,-5.543750069451884865e-01,4.245039138820328048e+02
1.634678314773935215e+00,7.177049919168925207e+00,3.969971913309532141e+00,4.854581258649061093e-01,-6.162318671241685530e-01,-6.201521538883776330e-01,4.262048979409685217e+02
1.784384961218376864e+00,7.069781400643636360e+00,4.040983272348883659e+00,4.065793498239053672e-01,-6.089239587970685097e-01,-6.811056046603027880e-01,4.279058819999042385e+02
1.966440995670593272e+00,6.956862994048898408e+00,4.106838084434465408e+00,3.236386059532673221e-01,-5.955325408121322495e-01,-7.352544087392279826e-01,4.296068660588399553e+02
2.174990112336971926e+00,6.844438790991593358e+00,4.167471518066092173e+00,2.391798078567453634e-01,-5.766266792678829134e-01,-7.812136022049951389e-01,4.313078501177756721e+02
2.399695039879613301e+00,6.738502565148943191e+00,4.222878775822822561e+00,1.557303082810885808e-01,-5.532039291039440032e-01,-8.183602409126653487e-01,4.330088341767113889e+02
2.628069785881220977e+00,6.645027444141967443e+00,4.273088886179157164e+00,7.546524804175740175e-02,-5.265016306938247181e-01,-8.468181795490337116e-01,4.347098182356471057e+02
2.735862442500982983e+00,6.605112548805526451e+00,4.295547207553862989e+00,-3.922727135722589525e-07,-4.977924865101806540e-01,-8.672961664701728246e-01,4.355221061666927653e+02
2.953188895077789589e+00,6.532151083529538660e+00,4.339500621989724749e+00,-2.698433015495289792e-07,-3.396605899514693605e-01,-9.405480761948040724e-01,4.372230902256284821e+02
3.156965527127725935e+00,6.471700108204820445e+00,4.378662186574506343e+00,-1.349216478675026751e-07,-1.656760893861751738e-01,-9.861802235928713856e-01,4.389240742845641989e+02
3.348041442009722868e+00,6.414903317045710374e+00,4.413390365707262397e+00,0.000000000000000000e+00,8.051981727478133011e-03,-9.999675822696755256e-01,4.406250583434999157e+02
3.526994146868733804e+00,6.352901169710825080e+00,4.444043656870253045e+00,-6.966924397233321313e-04,7.729957123249797495e-03,-9.999698807376735665e-01,4.423260424024356325e+02
3.694129594900882996e+00,6.276832009453771732e+00,4.470980587947471108e+00,-1.393393912508767048e-03,7.407923600364959421e-03,-9.999715901571083476e-01,4.440270264613713493e+02
3.792367142684974990e+00,6.221037700597480402e+00,4.486148550372688781e+00,-2.090103187225573426e-03,7.085881727699725602e-03,-9.999727105020455031e-01,4.450781185069240564e+02
3.943296939754754593e+00,6.112183649326403234e+00,4.508623169450901358e+00,-2.786819032655940293e-03,6.763832074195598454e-03,-9.999732417496736137e-01,4.467791025658597732e+02
4.083004087246200342e+00,5.977416220875134023e+00,4.528435297728447217e+00,-3.483540217505852118e-03,6.441775208854450506e-03,-9.999731838803036510e-01,4.484800866247954900e+02
4.212158709612663365e+00,5.819236122337394512e+00,4.546058697081919675e+00,-4.180265510415967153e-03,6.119711700733497170e-03,-9.999725368773696443e-01,4.501810706837312068e+02
4.331504535987554583e+00,5.640140442806961474e+00,4.561967145682753966e+00,-4.876993679972498920e-03,5.797642118940274716e-03,-9.999713007274290133e-01,4.518820547426669236e+02
4.441858945836649752e+00,5.442622351583195517e+00,4.576634434453950462e+00,-5.573723494718093793e-03,5.475567032627606974e-03,-9.999694754201629010e-01,4.535830388016026404e+02
4.544113021072521796e+00,5.229170796096991758e+00,4.590534363526725059e+00,-6.270453723162714224e-03,5.153487010988578101e-03,-9.999670609483760630e-01,4.552840228605383572e+02
4.639231604633452299e+00,5.002270199523243477e+00,4.604140738697113377e+00,-6.967183133794522393e-03,4.831402623251508828e-03,-9.999640573079975336e-01,4.569850069194740740e+02
4.728253365529500485e+00,4.764400158045932088e+00,4.617927367882542100e+00,-7.663910495090765600e-03,4.509314438674918817e-03,-9.999604644980801815e-01,4.586859909784097908e+02
4.812290870358544304e+00,4.518035137741911456e+00,4.632368057578394982e+00,-8.360634575528654716e-03,4.187223026542500302e-03,-9.999562825208011541e-01,4.603869750373455076e+02
4.873096732044221113e+00,4.328786709494234941e+00,4.643848082976569813e+00,-9.057354143596254778e-03,3.865128956158087395e-03,-9.999515113814618772e-01,4.616670939204196884e+02
4.950935612411285547e+00,4.074954581938607490e+00,4.660095401007016136e+00,-9.754067967803356498e-03,3.543032796840622344e-03,-9.999461510884872784e-01,4.633680779793554052e+02
5.023991508578587784e+00,3.821736856950350258e+00,4.677357684621394895e+00,-1.045077481669238161e-02,3.220935117919127011e-03,-9.999402016534273407e-01,4.650690620382911220e+02
5.090467668936161871e+00,3.573926803074731318e+00,4.695165464887355533e+00,-1.114747345884924482e-02,2.898836488727669566e-03,-9.999336630909552159e-01,4.667700460972268388e+02
5.148711568718638887e+00,3.336325730432469161e+00,4.713049268717979245e+00,-1.184416266291424269e-02,2.576737478600331626e-03,-9.999265354188681121e-01,4.684710301561625556e+02
5.197214791427645864e+00,3.113742398534685929e+00,4.730539622382303300e+00,-1.254084119759294250e-02,2.254638656866179720e-03,-9.999188186580867388e-01,4.701720142150982724e+02
5.234612922867692753e+00,2.910992424717939731e+00,4.747167055015838244e+00,-1.323750783166704852e-02,1.932540592844231124e-03,-9.999105128326551961e-01,4.718729982740339892e+02
5.259685457791776209e+00,2.732897693133397254e+00,4.762462102131093999e+00,-1.393416133400530131e-02,1.610443855838425116e-03,-9.999016179697406415e-01,4.735739823329697060e+02
5.271355729697039472e+00,2.584285766531712714e+00,4.775976399912239323e+00,-1.463080047357433189e-02,1.288349015132589891e-03,-9.998921340996325124e-01,4.752749663919054228e+02
5.268690853312202549e+00,2.469989298403861167e+00,4.787303779352022559e+00,-1.532742401944955229e-02,9.662566399854139202e-04,-9.998820612557431931e-01,4.769759504508411396e+02
5.250901658637951996e+00,2.394845440828299310e+00,4.796059178504878062e+00,-1.602403074082602366e-02,6.441672996254150423e-04,-9.998713994746061262e-01,4.786769345097768564e+02
5.249793272248147957e+00,2.392488002571898864e+00,4.796379093577137098e+00,-1.672061940702932251e-02,3.220815632459130126e-04,-9.998601487958763689e-01,4.787507708905857839e+02
5.218835661534519943e+00,2.361145796795703244e+00,4.802250189225513388e+00,-1.741718878752641919e-02,0.000000000000000000e+00,-9.998483092623299262e-01,4.804517549495215007e+02
5.200731692771554115e+00,2.359902001384873937e+00,4.804225339307688358e+00,-4.111893921955487446e-02,8.886223837962655379e-04,-9.991538636204724266e-01,4.812903596195365594e+02
5.163326798980649279e+00,2.387034063978731080e+00,4.806426816969730176e+00,-6.503781592784994847e-02,1.785758520950317526e-03,-9.978812021307145175e-01,4.829913436784722762e+02
5.125509872230031405e+00,2.460115650604126181e+00,4.805911804133312870e+00,-8.913502061948230804e-02,2.689963937095773451e-03,-9.960159196484670296e-01,4.846923277374079930e+02
5.087538628384100647e+00,2.575982859299041916e+00,4.802990069267795370e+00,-1.133697268783811080e-01,3.599716371491327050e-03,-9.935463487274089900e-01,4.863933117963437098e+02
5.049574699644273856e+00,2.731471472167350978e+00,4.797971398763200668e+00,-1.376993802460305949e-01,4.513426874653497269e-03,-9.904637851318472963e-01,4.880942958552794266e+02
5.011683663531544930e+00,2.923417350494406097e+00,4.791165594613632450e+00,-1.620800366721848740e-01,5.429452366871397387e-03,-9.867626780332438008e-01,4.897952799142151434e+02
4.973835063477347163e+00,3.148656829750288821e+00,4.782882472100616233e+00,-1.864667338222673609e-01,6.346109454905711142e-03,-9.824407789136411218e-01,4.914962639731508602e+02
4.935902421024476183e+00,3.404027114524881270e+00,4.773431857476347240e+00,-2.108138884736288632e-01,7.261689256549845595e-03,-9.774992441407664989e-01,4.931972480320865770e+02
4.897663239639195254e+00,3.686366673438724373e+00,4.763123585646829028e+00,-2.350757121778348779e-01,8.174472942418927954e-03,-9.719426873721502824e-01,4.948982320910222938e+02
4.858799000134979451e+00,3.992515634073384501e+00,4.752267497854989919e+00,-2.592066365734980726e-01,9.082747673717710482e-03,-9.657791793422293436e-01,4.965992161499580106e+02
4.818895147708221138e+00,4.319316177965493608e+00,4.741173439363793207e+00,-2.831617392538407496e-01,9.984822595734490353e-03,-9.590201941254790086e-01,4.983002002088937274e+02
4.777441070585906502e+00,4.663612935708674634e+00,4.730151257139334042e+00,-3.068971609579234650e-01,1.087904454068986358e-02,-9.516805025773346083e-01,5.000011842678294443e+02
4.733830070284485991e+00,5.022253382207316541e+00,4.719510797533928326e+00,-3.303705050768146467e-01,1.176381310085683300e-02,-9.437780152539146927e-01,5.017021683267651611e+02
4.687359323478691664e+00,5.392088232126213576e+00,4.709561903969205154e+00,-3.535412110368238436e-01,1.263759475327422450e-02,-9.353335786218026637e-01,5.034031523857008779e+02
4.637229835478687612e+00,5.769971835580094854e+00,4.700614414619208148e+00,-3.763708940111421541e-01,1.349893574981750680e-02,-9.263707297161735132e-01,5.051041364446365947e+02
4.582546385313620796e+00,6.152762574107068616e+00,4.692978160093539408e+00,-3.988236445699669397e-01,1.434647352908068052e-02,-9.169154155259949812e-01,5.068051205035723115e+02
4.522317462419214174e+00,6.537323256970070773e+00,4.686962961120529236e+00,-4.208662832438044288e-01,1.517894645710680945e-02,-9.069956842306351463e-01,5.085061045625080283e+02
4.455455194926347673e+00,6.920521517830415803e+00,4.682878626230473351e+00,-4.424685664717786238e-01,1.599520175975346903e-02,-8.966413559529106125e-01,5.102070886214437451e+02
4.380775269547014794e+00,7.299230211837552496e+00,4.681034949438924286e+00,-4.636033419589984383e-01,1.679420156749854981e-02,-8.858836809187525807e-01,5.119080726803794619e+02
4.296996843053841886e+00,7.670327813179180332e+00,4.681741707930062724e+00,-8.379998501672565325e-01,9.629851940653607126e-03,-5.455854809938188721e-01,5.136090567393151787e+02
4.202742445348921052e+00,8.030698813135892067e+00,4.685308659740162973e+00,-9.978458252684040408e-01,-0.000000000000000000e+00,-6.560265996449830828e-02,5.153100407982508386e+02
4.160550747555136653e+00,8.178533121996029109e+00,4.687551584968146834e+00,-9.890499594576708242e-01,-3.970173739294110757e-03,-1.475276767839157066e-01,5.160223796855967748e+02
4.053350070911268865e+00,8.522102933255238710e+00,4.694657651150634159e+00,-9.706203992262775193e-01,-8.500789340277105019e-03,-2.404657505475863988e-01,5.177233637445324348e+02
3.936443222857814561e+00,8.847956145117766624e+00,4.704339468439274974e+00,-9.389785760552284977e-01,-1.356905075983237327e-02,-3.437078913420122950e-01,5.194243478034680948e+02
3.812620835668667940e+00,9.153516459468388433e+00,4.715873134123578225e+00,-8.904451863490085994e-01,-1.906326132503783494e-02,-4.546910623440190702e-01,5.211253318624037547e+02
3.684593646135050804e+00,9.436194574556159509e+00,4.728534731568925231e+00,-8.223010457354011926e-01,-2.475616615486421132e-02,-5.685139597404609280e-01,5.228263159213394147e+02
3.554992686437231875e+00,9.693388513752861257e+00,4.741600335629947871e+00,-7.342213049269654679e-01,-3.031466139167915755e-02,-6.782330695977982771e-01,5.245272999802750746e+02
3.426369468064700108e+00,9.922483953273120605e+00,4.754346018063975166e+00,-6.293325443238789729e-01,-3.536710480205668833e-02,-7.763309323688920571e-01,5.262282840392107346e+02
3.301196158793735069e+00,1.012085454889265534e+01,4.766047852944470087e+00,-5.139381470995599832e-01,-3.960986534797049374e-02,-8.569122706105840592e-01,5.279292680981463945e+02
3.181865752730734354e+00,1.028586226170105178e+01,4.775981922074475250e+00,-3.957534084438681932e-01,-4.289233714557885019e-02,-9.173546136141959018e-01,5.296302521570820545e+02
3.070692233429046514e+00,1.041485768292546510e+01,4.783424320400007090e+00,-2.816935658952808841e-01,-4.523016808812369005e-02,-9.584377741032128473e-01,5.313312362160177145e+02
2.969910730086666284e+00,1.050518035786154947e+01,4.787651161423387869e+00,-1.764764312998075291e-01,-4.675434006722117147e-02,-9.831938267099539219e-01,5.330322202749533744e+02
2.881677666831736317e+00,1.055415910894789988e+01,4.787938582616465766e+00,-8.242082750289780879e-02,-4.764208345424181951e-02,-9.954582055907101878e-01,5.347332043338890344e+02
2.825185059761066153e+00,1.056559644674608656e+01,4.785614856047258669e+00,-0.000000000000000000e+00,-4.806577624515451230e-02,-9.988441726084960059e-01,5.359760059958418879e+02
2.760078290165430381e+00,1.054778740550893801e+01,4.778366391821537107e+00,-0.000000000000000000e+00,-7.928181305841998719e-03,-9.999685714767146960e-01,5.376769900547775478e+02
2.711227047586508121e+00,1.049001354165362443e+01,4.765306481957559015e+00,-3.118911509293949280e-02,3.440649895796667190e-02,-9.989211339886522323e-01,5.393779741137132078e+02
2.678897002605193034e+00,1.039828623698526577e+01,4.745815815617911326e+00,-6.555552852862832347e-02,8.107940895192429498e-02,-9.945494467965576568e-01,5.410789581726488677e+02
2.663539804370624875e+00,1.027861470056025439e+01,4.719275129978820260e+00,-1.032047842635477330e-01,1.322418956864961082e-01,-9.858300327796655216e-01,5.427799422315845277e+02
2.665793101069508175e+00,1.013700520209092382e+01,4.685065214861422689e+00,-1.440922210747280496e-01,1.878427903567143620e-01,-9.715721887419149772e-01,5.444809262905201876e+02
2.686480576596899539e+00,9.979460305177582313e+00,4.642566917362753287e+00,-1.879511423323692310e-01,2.475304750841555712e-01,-9.504751611697013214e-01,5.461819103494558476e+02
2.726612003429827347e+00,9.811978100282832571e+00,4.591161146486427924e+00,-2.342205555238748294e-01,3.105538725097093389e-01,-9.212475365716374931e-01,5.478828944083915076e+02
2.787383311706027378e+00,9.640551437363082954e+00,4.530228877773000207e+00,-2.819952336882690092e-01,3.756931577187671567e-01,-8.827985837213379039e-01,5.495838784673271675e+02
2.870176674511041970e+00,9.471167158072130832e+00,4.459151157929963638e+00,-3.300298674181992298e-01,4.412634286865517175e-01,-8.344859933610117020e-01,5.512848625262628275e+02
2.976560609377763456e+00,9.309805327451684320e+00,4.377309109461371861e+00,-3.768264690686188301e-01,5.052313438486543129e-01,-7.763653143991943173e-01,5.529858465851984874e+02
3.108290096003632819e+00,9.162438465023692302e+00,4.284083935297071655e+00,-4.208111101934288723e-01,5.654536862751511350e-01,-7.093519142256661247e-01,5.546868306441341474e+02
3.144738754890206600e+00,9.127838931910648768e+00,4.259202188667297051e+00,-4.605656844016600693e-01,6.199919892995359172e-01,-6.352079844869982228e-01,5.551124013369988006e+02
3.298850669039221195e+00,8.998892641621329958e+00,4.153520210275854829e+00,-4.950448010948661492e-01,6.674086131434541214e-01,-5.563239955375605117e-01,5.568133853959344606e+02
3.459744895376302587e+00,8.884297688984387875e+00,4.036595699574800022e+00,-5.237054339434227268e-01,7.069455880528200398e-01,-4.753530834977130470e-01,5.585143694548701205e+02
3.616242448203404347e+00,8.778580256711926211e+00,3.909362407358881519e+00,-5.465146294915883551e-01,7.385381730129838562e-01,-3.948203727700940746e-01,5.602153535138057805e+02
3.764557216792836059e+00,8.677026684090179742e+00,3.772776114193827635e+00,-5.638534269204301674e-01,7.626868284628085526e-01,-3.168250536801492379e-01,5.619163375727414405e+02
3.902473229039247204e+00,8.574891224712233750e+00,3.627800776265690530e+00,-5.763688842125358480e-01,7.802575709073459320e-01,-2.428930471490781118e-01,5.636173216316771004e+02
4.027628396548463385e+00,8.467438687515414841e+00,3.475400412434574093e+00,-5.848271107335172303e-01,7.922825806794115966e-01,-1.739700057569066594e-01,5.653183056906127604e+02
