8.643591234425413994e-01,5.899107775611893700e+00,3.788196183766577851e-01,7.621895087847938566e-01,-8.141532815814521429e-02,6.422139028698273799e-01,3.222523405449614131e+01
1.078188774999680577e+00,6.016753832513282774e+00,4.582648060550144620e-01,6.852372772920491961e-01,-4.808744329216970564e-02,7.267306733632491467e-01,3.348587777310653735e+01
1.305791058086346990e+00,6.135271546659887498e+00,5.145286518201876991e-01,6.063794970567977227e-01,-1.701856577399483983e-02,7.949932540393920277e-01,3.474652149171693338e+01
1.545573916104513890e+00,6.256891558005140297e+00,5.164223374397044486e-01,5.295027064220532154e-01,1.103322676731145584e-02,8.482364952056837826e-01,3.600716521032732942e+01
1.626313737705179729e+00,6.297569692526087337e+00,5.039630012662019709e-01,4.571583152755001045e-01,3.580450173969685485e-02,8.886643418240876002e-01,3.642079374523719792e+01
1.876211392757311192e+00,6.424726246791530926e+00,4.207297931087131682e-01,4.147125069699837407e-01,3.325903308862291491e-02,9.093444744873534491e-01,3.768143746384759396e+01
2.128968134933864498e+00,6.558235082471930433e+00,2.717931629602258758e-01,3.702571122745848542e-01,3.057359380431892357e-02,9.284260477668504485e-01,3.894208118245799000e+01
2.377402596302478965e+00,6.699432728868403686e+00,8.724599753952423653e-02,3.240105306085369619e-01,2.776009962345095394e-02,9.456461034254148856e-01,4.020272490106838603e+01
2.614335616537838192e+00,6.850547756176626812e+00,-1.028316583656374433e-01,2.762446254065757945e-01,2.483405608233311621e-02,9.607664526785268944e-01,4.146336861967878207e+01
2.832596549819635712e+00,7.012352667570421971e+00,-2.760721202998865920e-01,2.272786062128799855e-01,2.181425778317599984e-02,9.735854216838396580e-01,4.272401233828917810e+01
3.025019918851079570e+00,7.181780405067813788e+00,-4.255223637810603421e-01,1.774694117915985303e-01,1.872225450976837402e-02,9.839482125927235812e-01,4.398465605689957414e+01
3.184419350657757164e+00,7.354252607785798368e+00,-5.519311509879269995e-01,1.271991691360484233e-01,1.558161263456587717e-02,9.917548007036846025e-01,4.524529977550997017e+01
3.303570990670051444e+00,7.525974151001529222e+00,-6.560389348736459514e-01,7.686071092667151605e-02,1.241702793409558622e-02,9.969645171886161172e-01,4.650594349412036621e+01
3.375210359298792095e+00,7.693846098908391440e+00,-7.385781261852055746e-01,2.684241067346767803e-02,9.253366422985883147e-03,9.995968488341081537e-01,4.776658721273076225e+01
3.392028938359799906e+00,7.855395646109192498e+00,-8.002733575842420066e-01,-2.248632141097281836e-02,6.114718658572602591e-03,9.997284509131112440e-01,4.902723093134115828e+01
3.346670534129035257e+00,8.008721394581145958e+00,-8.418417449636766969e-01,-7.078766448262711897e-02,3.023548400767774036e-03,9.974868243301077131e-01,5.028787464995155432e+01
3.291097842715775990e+00,8.097958732260254422e+00,-8.589343088239426161e-01,-1.177652196089313680e-01,0.000000000000000000e+00,9.930414659270077049e-01,5.105359575563144148e+01
3.158037294409532958e+00,8.242718744947872267e+00,-8.737137476357657029e-01,-7.875138647958604410e-02,-3.907659485333632443e-02,9.961281237181345283e-01,5.231423947424183751e+01
2.985568956832734600e+00,8.396550835239917632e+00,-8.682093405587596457e-01,-3.937569398339047649e-02,-7.815319118257080255e-02,9.961634571852687747e-01,5.357488319285223355e+01
2.808729451093069596e+00,8.576578815953078916e+00,-8.412299255807984544e-01,0.000000000000000000e+00,-1.168706797253571267e-01,9.931471412739065752e-01,5.483276028870777452e+01
2.652827061147339904e+00,8.792622837629979315e+00,-7.924874851635591577e-01,0.000000000000000000e+00,-1.094866492264805619e-01,9.939882663498386117e-01,5.609340400731817056e+01
2.527187662882620867e+00,9.040414982595352811e+00,-7.240886159545905087e-01,0.000000000000000000e+00,-1.020924793652089324e-01,9.947749120565235748e-01,5.735404772592856659e+01
2.432129653029405425e+00,9.310408144850509160e+00,-6.392584358551587354e-01,0.000000000000000000e+00,-9.468938507502079605e-02,9.955068660507140343e-01,5.861469144453896263e+01
2.367965905824781281e+00,9.593555635759846822e+00,-5.412161372914933155e-01,0.000000000000000000e+00,-8.727858735087598574e-02,9.961839429493106746e-01,5.987533516314935866e+01
2.335005204585268945e+00,9.881095055783791992e+00,-4.331761481245424705e-01,0.000000000000000000e+00,-7.986131224532318218e-02,9.968059845358347992e-01,6.113597888175975470e+01
2.333553020726736094e+00,1.016433886478931647e+01,-3.183492908401532318e-01,0.000000000000000000e+00,-7.243878985593504849e-02,9.973728599296290964e-01,6.239662260037015074e+01
2.363911653704225735e+00,1.043446669977967289e+01,-1.999439404381079533e-01,0.000000000000000000e+00,-6.501225330601838326e-02,9.978844657173865373e-01,6.365726631898054677e+01
2.426379729817120356e+00,1.068231453009593679e+01,-8.116718143968075505e-02,0.000000000000000000e+00,-5.758293772056918836e-02,9.983407260467085376e-01,6.491791003759094281e+01
2.521251042243779494e+00,1.089815566556845106e+01,3.477403556923126110e-02,0.000000000000000000e+00,-5.015207919945537801e-02,9.987415926814962042e-01,6.617855375620133884e+01
2.648812698668304044e+00,1.107146844056119050e+01,1.446717374433379166e-01,0.000000000000000000e+00,-4.272091378981900806e-02,9.990870450190828533e-01,6.743919747481173488e+01
2.809342526061945122e+00,1.119068508186102306e+01,2.453157716145352163e-01,0.000000000000000000e+00,-3.529067645968907152e-02,9.993770900691177905e-01,6.869984119342213091e+01
2.902941520584179536e+00,1.123172801466295390e+01,2.934979293754546026e-01,0.000000000000000000e+00,-2.786260007479053613e-02,9.996117623943168162e-01,6.934984756037766829e+01
3.103027685487726117e+00,1.126722303542811687e+01,3.787667909021657509e-01,-8.080469406511575636e-02,-2.419606270774026999e-02,9.964362257397541001e-01,7.061049127898806432e+01
3.326069017617705015e+00,1.123844777890926672e+01,4.525314045694274201e-01,-1.633244761170487558e-01,-2.026135630129514281e-02,9.863643307327792931e-01,7.187113499759846036e+01
3.561675465507285310e+00,1.115502201018942152e+01,5.174173090785914031e-01,-2.458626337765900949e-01,-1.612732374740419999e-02,9.691705086006201508e-01,7.313177871620885639e+01
3.799495309368026597e+00,1.102627932515558662e+01,5.760468412748600553e-01,-3.266489558482609246e-01,-1.187837968696304342e-02,9.450710892516251960e-01,7.439242243481925243e+01
4.029206883459743871e+00,1.086148727615891119e+01,6.310400818174574100e-01,-4.040234790793205133e-01,-7.606170471829243850e-03,9.147169914915734834e-01,7.565306615342964847e+01
4.102186688042708695e+00,1.080166745902442571e+01,6.487310851821489477e-01,-4.766015702913958818e-01,-3.400009820016205390e-03,8.791128386782891546e-01,7.606761887046251047e+01
4.312098744786663218e+00,1.060803079381736502e+01,7.025420720530172192e-01,-5.173895388696707620e-01,2.994283311306563528e-02,8.552259887382939185e-01,7.732826258907290651e+01
4.500307443171733368e+00,1.039561624772477799e+01,7.566944142397301620e-01,-5.594329523275934912e-01,6.578562882309525739e-02,8.262608685459952307e-01,7.858890630768330254e+01
4.666916946505701880e+00,1.016786242836134058e+01,8.116904268806266476e-01,-6.021173799773141821e-01,1.039539286428482479e-01,7.916111680926262162e-01,7.984955002629369858e+01
4.812025193742686113e+00,9.927830798585461025e+00,8.680327293539844558e-01,-6.446350627614277906e-01,1.441152147015451745e-01,7.507838841837894961e-01,8.111019374490409461e+01
4.935722934368134140e+00,9.678279630228418640e+00,9.262244265330131787e-01,-6.860008763668032916e-01,1.857583841640546296e-01,7.034888914096208978e-01,8.237083746351449065e+01
5.038092972697469030e+00,9.421730782821159167e+00,9.867692902158543555e-01,-7.251036706750206839e-01,2.281937850484877794e-01,6.497324551219952893e-01,8.363148118212488669e+01
5.119209601531926168e+00,9.160530886685927854e+00,1.050171940796253756e+00,-7.607959319107564511e-01,2.705827650047127886e-01,5.898936491185913233e-01,8.489212490073528272e+01
5.179138209876383847e+00,8.896908377498762732e+00,1.116938029240281516e+00,-7.920130668452356471e-01,3.119999392357779566e-01,5.247583633095095346e-01,8.615276861934567876e+01
5.217935053821807223e+00,8.633027731382588499e+00,1.187574419434568984e+00,-8.179003674448267480e-01,3.515215177683466141e-01,4.554905174418622527e-01,8.741341233795607479e+01
5.235647183833994411e+00,8.371042183414997950e+00,1.262589370971939573e+00,-8.379175504217155623e-01,3.883226617148483051e-01,3.835357728999568283e-01,8.867405605656647083e+01
5.232312525668580960e+00,8.113146176590015912e+00,1.342492722440415065e+00,-8.518937368340604444e-01,4.217614194625244894e-01,3.104744211619646643e-01,8.993469977517686686e+01
5.207960116043345522e+00,7.861628781931746524e+00,1.427796075281576593e+00,-8.600202997605798094e-01,4.514300494185559121e-01,2.378570883570271521e-01,9.119534349378726290e+01
5.162610498137169657e+00,7.618929353357760448e+00,1.519012978284542736e+00,-8.627884992252820018e-01,4.771653155271164959e-01,1.670606694063362097e-01,9.245598721239765894e+01
5.096276286042022541e+00,7.387696733718675191e+00,1.616659112782173224e+00,-8.608937150644678793e-01,4.990221223440557963e-01,9.919139465565103564e-02,9.371663093100805497e+01
5.008962911566341880e+00,7.170853412437023344e+00,1.721252478616322357e+00,-8.551324962666426721e-01,5.172236789525663792e-01,3.504396894692406866e-02,9.497727464961845101e+01
4.900669571380515066e+00,6.971666152057658827e+00,1.833313580939404552e+00,-8.463133157365289039e-01,5.321035931752041703e-01,-2.489051500228719321e-02,9.623791836822884704e+01
4.795777230793071055e+00,6.820754848833198380e+00,1.932119437346637492e+00,-8.351919860094663139e-01,5.440521584196161831e-01,-8.038404956532353707e-02,9.728670302421642191e+01
4.655425664194387636e+00,6.658140962759211412e+00,2.058424088146613151e+00,-7.980165491026136593e-01,5.907920734794160911e-01,-1.188878180144969376e-01,9.854734674282681794e+01
4.508175527438032404e+00,6.512708835295703658e+00,2.195107961569923827e+00,-7.563665935913105320e-01,6.349838855772743651e-01,-1.571783736913707485e-01,9.980799046143721398e+01
4.368091705326352603e+00,6.375533390616107354e+00,2.344131868139049946e+00,-7.108184732673472617e-01,6.759031177787754308e-01,-1.946588642698000582e-01,1.010686341800476100e+02
4.337474142361829266e+00,6.344212336919250461e+00,2.380220843572606437e+00,-6.621269057880017073e-01,7.129750327387287534e-01,-2.307695025838888137e-01,1.013601353464439541e+02
4.216140031719694647e+00,6.206499871344959729e+00,2.542871344553673030e+00,-6.570623737153412636e-01,6.901612499602023387e-01,-3.032267898800044548e-01,1.026207790650543501e+02
4.112327675092575241e+00,6.063610187723131872e+00,2.715533561656976236e+00,-6.470998220207042628e-01,6.604656739873379090e-01,-3.808502511817790093e-01,1.038814227836647461e+02
4.019092788942551842e+00,5.914382787946351527e+00,2.893472636871779358e+00,-6.311035516228888920e-01,6.228862775785335426e-01,-4.622996780588687904e-01,1.051420665022751422e+02
3.929496271847980893e+00,5.758189615259364125e+00,3.071955615140557594e+00,-6.080933143819899911e-01,5.767771897446732909e-01,-5.454819835651435467e-01,1.064027102208855382e+02
3.836600618069106350e+00,5.594919684263301107e+00,3.246249737596208718e+00,-5.774868003349884482e-01,5.221135629533424360e-01,-6.276196482098240770e-01,1.076633539394959342e+02
3.733466304781401846e+00,5.424976442714974034e+00,3.411620734870955740e+00,-5.393395062728953970e-01,4.597016567676914245e-01,-7.055404196347286883e-01,1.089239976581063303e+02
3.616108441877246005e+00,5.249201225687589734e+00,3.564465699693223133e+00,-4.944804293552098051e-01,3.912215378890053774e-01,-7.761667432172347780e-01,1.101846413767167263e+02
3.486454925550172668e+00,5.068418328912085435e+00,3.703446368265584709e+00,-4.444557103886940808e-01,3.190334845288916310e-01,-8.370643686433170139e-01,1.114452850953271223e+02
3.350720923548249797e+00,4.882920855107456326e+00,3.829214456152940649e+00,-3.912729306401973584e-01,2.457876399191193661e-01,-8.868449299687182208e-01,1.127059288139375184e+02
3.217785429363632765e+00,4.692157440058872808e+00,3.944137710219004500e+00,-3.370389483015107102e-01,1.739787112705925842e-01,-9.252762589369920576e-01,1.139665725325479144e+02
3.097860559198364783e+00,4.494493896352248719e+00,4.051440364109134329e+00,-2.836280712340614185e-01,1.056038597663718354e-01,-9.531017479841754625e-01,1.152272162511583105e+02
3.001161383299010499e+00,4.287123956397360658e+00,4.154343903371771063e+00,-2.324781558352325972e-01,4.200752339757446441e-02,-9.716940233620106060e-01,1.164878599697687065e+02
2.978624456711963742e+00,4.227882212391711469e+00,4.182490433004812047e+00,-1.845337107867846826e-01,-1.610013431129671962e-02,-9.826943040734578139e-01,1.168375132109655539e+02
2.916448168103357830e+00,4.007951037126886717e+00,4.284003061148777824e+00,-1.653522277922524486e-01,-1.451526210496903620e-02,-9.861277543656111755e-01,1.180981569295759499e+02
2.889162085370387878e+00,3.778455904479618876e+00,4.386057615225853468e+00,-1.460479625647925772e-01,-1.291991744157944440e-02,-9.891931400712278277e-01,1.193588006481863459e+02
2.895386377674439959e+00,3.543611417328462743e+00,4.489489925106148860e+00,-1.266424785712620960e-01,-1.131587972047219150e-02,-9.918838810503370906e-01,1.206194443667967420e+02
2.933779154773665354e+00,3.307638226032397544e+00,4.595136317511333779e+00,-1.071578421678446164e-01,-9.704971023529702229e-03,-9.941946541796348180e-01,1.218800880854071380e+02
3.003035630768219555e+00,3.074860413186863095e+00,4.703833917608528203e+00,-8.761649860153465641e-02,-8.089045887484144770e-03,-9.961214366278026144e-01,1.231407318040175340e+02
3.101887616728800978e+00,2.849805420370973064e+00,4.816420950894162445e+00,-6.804114337811952018e-02,-6.469980682395466698e-03,-9.976615368739879530e-01,1.244013755226279301e+02
3.229103353188688352e+00,2.637308876837542559e+00,4.933737045473644223e+00,-4.845459070671314511e-02,-4.849662737408615316e-03,-9.988136129482708681e-01,1.256620192412383261e+02
3.383487701114420432e+00,2.442626805846032312e+00,5.056623534846116819e+00,-2.887964079558031152e-02,-3.229979360458065749e-03,-9.995776776123250773e-01,1.269226629598487222e+02
3.563882718063027255e+00,2.271557858703749044e+00,5.185923761305080149e+00,-9.338947795720654518e-03,-1.612806900594080913e-03,-9.999550904455510869e-01,1.281833066784591324e+02
3.605298551578402844e+00,2.237964953207652652e+00,5.214343576099873978e+00,1.014510983321466504e-02,0.000000000000000000e+00,-9.999485370490184266e-01,1.284529172295451076e+02
3.809782134007096310e+00,2.096777123694973266e+00,5.349298346545498184e+00,8.696162629900605970e-03,3.387622864292932651e-03,-9.999564494350959842e-01,1.297135609481555036e+02
4.030899868979664902e+00,1.984876429730572545e+00,5.484431262911504845e+00,7.246998990505325484e-03,6.775429721610229383e-03,-9.999507860678540361e-01,1.309742046667658997e+02
4.260680088731156445e+00,1.900726244321548242e+00,5.612488164171628213e+00,5.797677917154281553e-03,1.016328258626661603e-02,-9.999315449658744415e-01,1.322348483853762957e+02
4.491155127190670449e+00,1.844240153612057398e+00,5.726212337522427198e+00,4.348258438422681650e-03,1.355104345009124599e-02,-9.998987258067520978e-01,1.334954921039866917e+02
4.714359785512571399e+00,1.816779571861017128e+00,5.818341901456739684e+00,2.898799597316024847e-03,1.693857431053439819e-02,-9.998523299273853748e-01,1.347561358225970878e+02
4.922329845302612306e+00,1.821186168299376629e+00,5.881607186973633716e+00,1.449360439244936878e-03,2.032573719877419152e-02,-9.997923603237042212e-01,1.360167795412074838e+02
5.071044769356152671e+00,1.846869920293014555e+00,5.909040454363264416e+00,0.000000000000000000e+00,2.371239420780988857e-02,-9.997188216498343882e-01,1.370017396859384462e+02
5.239057915221565942e+00,1.910003331453141717e+00,5.912067517122582494e+00,-6.651035654659592788e-02,2.463260025518480140e-02,-9.974816326513049614e-01,1.382623834045488422e+02
5.379348146551310883e+00,2.007571151345122651e+00,5.876203206279170921e+00,-1.413993457461747427e-01,2.554208022019522489e-02,-9.896230732761737148e-01,1.395230271231592383e+02
5.493625847018011044e+00,2.134199990458098828e+00,5.804384631894751401e+00,-2.248183408965326591e-01,2.639323996147922152e-02,-9.740431769079163082e-01,1.407836708417696343e+02
5.583566347376926586e+00,2.285045532045377747e+00,5.699535938139021596e+00,-3.161610008534526672e-01,2.711970941966137041e-02,-9.483178490887620438e-01,1.420443145603800303e+02
5.650812621088999066e+00,2.455679842213744468e+00,5.564569357798356819e+00,-4.137045701567271805e-01,2.763803639291669695e-02,-9.099915755520934235e-01,1.433049582789904264e+02
5.696977626612524048e+00,2.641988402987607731e+00,5.402386262489341284e+00,-5.143619433265100849e-01,2.785694288943029590e-02,-8.571206344443186298e-01,1.445656019976008224e+02
5.723646324082215742e+00,2.840074436277689074e+00,5.215878208955789574e+00,-6.137716915032230824e-01,2.769582765514089565e-02,-7.889976247364558493e-01,1.458262457162112185e+02
5.732377386689586629e+00,3.046168258897128833e+00,5.007927981826496122e+00,-7.069084550168940329e-01,2.710873376412330227e-02,-7.067853654252710394e-01,1.470868894348216145e+02
5.724704620131744193e+00,3.256539527533111489e+00,4.781410633209858929e+00,-7.891350363504707754e-01,2.610325296827079380e-02,-6.136648226748994128e-01,1.483475331534320105e+02
5.702138096847508386e+00,3.467410300810371826e+00,4.539194519500270530e+00,-8.572699147193815206e-01,2.474279974590281456e-02,-5.142723861707514388e-01,1.496081768720424066e+02
5.666165005249535369e+00,3.674866864839831049e+00,4.284142335770115828e+00,-9.101500679563505614e-01,2.312953124309835920e-02,-4.136325405278518663e-01,1.508688205906528026e+02
5.618250207635313132e+00,3.874768239329286157e+00,4.019112148119072359e+00,-9.484830198194873496e-01,2.137723191215865418e-02,-3.161059554482953948e-01,1.521294643092631986e+02
5.559836493761801890e+00,4.062649202776962731e+00,3.746958424352636818e+00,-9.742128304711004105e-01,1.958756039808046828e-02,-2.247791992670553907e-01,1.533901080278735947e+02
5.492344510044189221e+00,4.233615545622788190e+00,3.470533063363784532e+00,-9.897954418386704090e-01,1.783731042617631851e-02,-1.413747278411224551e-01,1.546507517464839907e+02
5.417172336826946655e+00,4.382229076533834977e+00,3.192686423589231381e+00,-9.976553706941388988e-01,1.617634017262403745e-02,-6.649877700950586334e-02,1.559113954650943867e+02
5.335997586135303727e+00,4.502073936208028648e+00,2.917219056324508397e+00,-9.998929495611769136e-01,1.463179475832167287e-02,0.000000000000000000e+00,1.571676474031872601e+02
5.249224183784647835e+00,4.590369330417010119e+00,2.644620730388216323e+00,-9.980585788088780497e-01,1.423070370797208627e-02,6.063464634990780450e-02,1.584282911217976562e+02
5.157321530732286163e+00,4.648710841128429472e+00,2.377424435579524875e+00,-9.919641508812793163e-01,1.373948821536494225e-02,1.257710214237058310e-01,1.596889348404080522e+02
5.060124775930455954e+00,4.681791003653270167e+00,2.116764807075630195e+00,-9.807154384352620990e-01,1.314759790249602628e-02,1.949983832859287503e-01,1.609495785590184482e+02
4.957478536417601944e+00,4.693713197917994684e+00,1.863778837302226377e+00,-9.634527617593742210e-01,1.244694473012299997e-02,2.675889560970701186e-01,1.622102222776288443e+02
4.849235131449334268e+00,4.688089053551757424e+00,1.619606285957673419e+00,-9.394568055234178150e-01,1.163362502788312623e-02,3.424698079020189745e-01,1.634708659962392403e+02
4.735253101985217761e+00,4.668124240012031301e+00,1.385390091035794802e+00,-9.082721620595693990e-01,1.070960462802991904e-02,4.182427333455376872e-01,1.647315097148496363e+02
4.615395982080769066e+00,4.636694669496205456e+00,1.162276780998999115e+00,-8.698240768193883365e-01,9.683916744683798011e-03,4.932669633593769754e-01,1.659921534334600324e+02
4.489531294317323784e+00,4.596414905569522702e+00,9.505867296696934865e-01,-8.244953315566941887e-01,8.572894246409284644e-03,5.658038120457097309e-01,1.672527971520704284e+02
4.357529747565130229e+00,4.549700402822642431e+00,7.489841131812671193e-01,-7.731333223219392092e-01,7.399139397074285668e-03,6.342003773663518196e-01,1.685134408706808244e+02
4.219264620774402452e+00,4.498825065266462531e+00,5.553065868187105902e-01,-7.169751849852280534e-01,6.189306876241186701e-03,6.970712134321642717e-01,1.697740845892912205e+02
4.074611319316542080e+00,4.445975467467200737e+00,3.673946638070728077e-01,-6.575052490963446683e-01,4.971183166831160544e-03,7.534335635931517228e-01,1.710347283079016165e+02
3.923447094866497231e+00,4.393303011928321844e+00,1.830909365576510461e-01,-5.962811136050054639e-01,3.770774280395426670e-03,8.027668496016143740e-01,1.722953720265120126e+02
3.765650924617907513e+00,4.342975263971373678e+00,2.392986626930463105e-04,-5.347710412604154140e-01,2.610047886227614619e-03,8.449929710235953850e-01,1.735560157451224086e+02
3.601103549079472721e+00,4.297227677610211849e+00,-1.833158326430211205e-01,-4.742347932226616547e-01,1.505678249579208089e-03,8.803971227974726199e-01,1.748166594637328046e+02
3.429687671539598526e+00,4.258416935190358465e+00,-3.697302938329262711e-01,-4.156606302814611631e-01,4.687917483593032693e-04,9.095196648057231048e-01,1.760773031823432007e+02
3.342451782974827701e+00,4.241837613717995836e+00,-4.635760840612785372e-01,-3.597534765865136319e-01,-4.945344230605766209e-04,9.330472611393385574e-01,1.767030431261343040e+02
3.162239831253299105e+00,4.214595410760209049e+00,-6.546213555254015715e-01,-3.171230846588249941e-01,-4.434215577744941763e-04,9.483842852735350215e-01,1.779636868447447000e+02
2.974684953749059613e+00,4.195808740213013088e+00,-8.447831603026330072e-01,-2.732839789470323244e-01,-3.907272528680347809e-04,9.619333210691330960e-01,1.792243305633550960e+02
2.779447995241033809e+00,4.183175652827721080e+00,-1.027107700051986150e+00,-2.284850304065141613e-01,-3.367464807877422646e-04,9.735473678676050957e-01,1.804849742819654921e+02
2.576177304428683534e+00,4.174575472169282264e+00,-1.194638350155880602e+00,-1.830000663848715681e-01,-2.818066589907935798e-04,9.831128604021716066e-01,1.817456180005758881e+02
2.364508948682673140e+00,4.168019231557588355e+00,-1.340413151013840398e+00,-1.371197516418580786e-01,-2.262580262487300109e-04,9.905544520706475176e-01,1.830062617191862842e+02
2.144066773118443958e+00,4.161603251062714115e+00,-1.457462297410982321e+00,-9.114239390996586865e-02,-1.704625909449047677e-04,9.958378557651168528e-01,1.842669054377966802e+02
1.914462311948554207e+00,4.153464757910167116e+00,-1.538805625056494319e+00,-4.536434309609979620e-02,-1.147824536094352782e-04,9.989705016668148918e-01,1.855275491564070762e+02
1.676114257515639805e+00,4.141794718424617550e+00,-1.577479883004833772e+00,-7.069497921097834560e-05,-5.956837023416438096e-05,9.999999957269145590e-01,1.867840431939061148e+02
1.427864386091950655e+00,4.124696935238329587e+00,-1.566638679219869434e+00,4.854703703705579021e-02,-1.234107171258618798e-04,9.988208898319645979e-01,1.880446869125165108e+02
1.226560914627009335e+00,4.106754468243847711e+00,-1.522040690922522366e+00,9.704995188563640685e-02,-1.869611885047947012e-04,9.952794943554849061e-01,1.890423147035812690e+02
9.693950488303486601e-01,4.078204511555187040e+00,-1.417087151410164392e+00,1.507129267352341484e-01,-2.161805128853590274e-02,9.883411726592119528e-01,1.903029584221916650e+02
7.132794574142574673e-01,4.044371547574201919e+00,-1.256018448528254172e+00,2.093693264714005520e-01,-4.519510884763117131e-02,9.767916294016667500e-01,1.915636021408020611e+02
4.640437241644904121e-01,4.008134967186693487e+00,-1.045731788296673459e+00,2.729025421571357191e-01,-7.091832263727650132e-02,9.594241991937080272e-01,1.928242458594124571e+02
2.275304033595757225e-01,3.971741171846757013e+00,-7.931066277007141618e-01,3.408375051030306246e-01,-9.865033328035403837e-02,9.349320332830706182e-01,1.940848895780228531e+02
9.597536115165299433e-03,3.936855966933284101e+00,-5.050071555734904072e-01,4.122284059219999408e-01,-1.280671034835685063e-01,9.020346769145496379e-01,1.953455332966332492e+02
-1.838786833741054838e-01,3.904602801075522045e+00,-1.882847679713650635e-01,4.855848346877455479e-01,-1.586211249463503059e-01,8.596782578628059390e-01,1.966061770152436452e+02
-3.470011315237871985e-01,3.875587754298106535e+00,1.502194610692279553e-01,5.588877961246812021e-01,-1.895379312765122226e-01,8.072916473928842818e-01,1.978668207338540412e+02
-4.738489064411036678e-01,3.849911864372732584e+00,5.036723124978443877e-01,6.297416158054545132e-01,-2.198663165859712221e-01,7.450397976978496706e-01,1.991274644524644373e+02
-5.584744424814542807e-01,3.827171081155130494e+00,8.652459580461505650e-01,6.956684250823319537e-01,-2.485885003246356140e-01,6.739801182897138254e-01,2.003881081710748333e+02
-5.949006238975232952e-01,3.806443845959387229e+00,1.228115497965960978e+00,7.544849557404058604e-01,-2.747699139691657799e-01,5.960318329911372670e-01,2.016487518896852293e+02
-5.771179336507172852e-01,3.786266000251049757e+00,1.585456499824576593e+00,8.046446645172192769e-01,-2.977035147841494145e-01,5.137310396979487548e-01,2.029093956082956254e+02
-4.990816748398669289e-01,3.764592428149097003e+00,1.930442537472553788e+00,8.454284868358271643e-01,-3.170000091036844214e-01,4.298391185952572524e-01,2.041700393269060214e+02
-3.547093045439332348e-01,3.738744523416570598e+00,2.256242729291162430e+00,8.769338565428210774e-01,-3.325990724475719196e-01,3.469364037629226738e-01,2.054306830455164175e+02
-1.378779232552353462e-01,3.705342236340625650e+00,2.556019274830368282e+00,8.998994139996763231e-01,-3.447116454093448468e-01,2.671234287781983907e-01,2.066913267641268135e+02
1.575780324199071436e-01,3.660219091088023902e+00,2.822924988951665437e+00,9.154549487813918862e-01,-3.537265155664769956e-01,1.918848324825547513e-01,2.079519704827372095e+02
5.378688405004823370e-01,3.598318167649196653e+00,3.050100832609421886e+00,9.248829090510976014e-01,-3.601158858915985417e-01,1.220989487001761659e-01,2.092126142013476056e+02
9.486374841091430588e-01,3.515537163103545470e+00,3.245345007780044533e+00,9.294410335558714875e-01,-3.643615943014120173e-01,5.813771358358267582e-02,2.104732579199580016e+02
1.079308649713488943e+00,3.483871505043328654e+00,3.308347556809930534e+00,9.302570451933813711e-01,-3.669084761464080913e-01,0.000000000000000000e+00,2.108992826448715334e+02
1.371298028773624944e+00,3.412053466572220639e+00,3.507792625324451574e+00,9.204260015966322372e-01,-3.644304665458893977e-01,-1.414440194493274960e-01,2.121599263634819295e+02
1.551925903563107667e+00,3.395845079196218474e+00,3.704530603850235693e+00,8.814082251993533568e-01,-3.507718450128137211e-01,-3.163521033551576767e-01,2.134205700820923255e+02
1.706034157461362888e+00,3.447117305381568020e+00,3.863249388389663697e+00,7.957660292583634831e-01,-3.189567479298490715e-01,-5.148038652034309104e-01,2.146812138007027215e+02
1.860997698831804881e+00,3.557082944649274214e+00,3.980669131565159891e+00,6.549228585939033120e-01,-2.653134406878052132e-01,-7.075908616436398235e-01,2.159418575193131176e+02
2.015423653734335740e+00,3.709180352722694973e+00,4.069518076295103981e+00,4.748621006439383008e-01,-1.957828379198593427e-01,-8.580064485469047764e-01,2.172025012379235136e+02
2.167869930262810829e+00,3.887996546323428948e+00,4.142514162320277471e+00,2.898122398838254843e-01,-1.236970597918308629e-01,-9.490563223604677745e-01,2.184631449565339096e+02
2.316847090503054041e+00,4.078902900127122422e+00,4.212369612547443687e+00,1.269015063703051727e-01,-5.984860862360667083e-02,-9.901081515303092884e-01,2.197237886751443057e+02
2.448389909304370615e+00,4.251616219862259349e+00,4.283204553213415977e+00,-4.730092251022989698e-03,-8.028414844100014922e-03,-9.999565844487389166e-01,2.208712356291925403e+02
2.587615534950483021e+00,4.431922198421748504e+00,4.375528987557284033e+00,-6.485653169767771620e-02,-8.807924551038367675e-03,-9.978557264260456972e-01,2.221318793478029363e+02
2.721488921808215888e+00,4.604048968455148660e+00,4.479281628740129584e+00,-1.251869460015011815e-01,-9.560917593906185022e-03,-9.920871017232204547e-01,2.233925230664133323e+02
2.851115277917567692e+00,4.774832757678363571e+00,4.584754332806353361e+00,-1.850574739510930378e-01,-1.027878763110000315e-02,-9.826739428008026689e-01,2.246531667850237284e+02
2.916300772049068790e+00,4.863097574492334374e+00,4.637186220235910206e+00,-2.438193118393759407e-01,-1.095407831286297588e-02,-9.697588109125324651e-01,2.252978035148712195e+02
3.042137568196571440e+00,5.040394174195452770e+00,4.732080689951077446e+00,-2.644134600676198987e-01,-8.451124748864738412e-03,-9.643723869053636433e-01,2.265584472334816155e+02
3.165225785688458693e+00,5.225527975847946927e+00,4.814854723524055302e+00,-2.849718617739989135e-01,-5.933752441257922165e-03,-9.585175160522768634e-01,2.278190909520920115e+02
3.285391224955914513e+00,5.418787654787077912e+00,4.886344859235335569e+00,-3.054649700285473890e-01,-3.405367818711923199e-03,-9.521972251353593153e-01,2.290797346707024076e+02
3.402458701807865360e+00,5.620673755984324060e+00,4.947383566140487687e+00,-3.258632198906935007e-01,-8.694572335374522011e-04,-9.454165251182087282e-01,2.303403783893128036e+02
3.516252581554632162e+00,5.831910748349111273e+00,4.998799544275446927e+00,-3.461372376445903676e-01,1.670436616812486690e-03,-9.381824035640839998e-01,2.316010221079231997e+02
3.626597357688328582e+00,6.053464385889902211e+00,5.041418023502614254e+00,-3.662580502612536870e-01,4.210739206295117075e-03,-9.305037938096553107e-01,2.328616658265335957e+02
3.733318292378560610e+00,6.286564786194079879e+00,5.076061061105416883e+00,-3.861972916380113086e-01,6.747869243104204391e-03,-9.223915210972739587e-01,2.341223095451439917e+02
3.836242137547335673e+00,6.532735771835440630e+00,5.103547838238834622e+00,-4.059274022057106079e-01,9.278263870588117357e-03,-9.138582263995169708e-01,2.353829532637543878e+02
3.935197957238172783e+00,6.793831168324055980e+00,5.124694955342748770e+00,-4.254218186349728592e-01,1.179840359357626003e-02,-9.049182691834414261e-01,2.366435969823647838e+02
4.030018074437542452e+00,7.072078916633578238e+00,5.140316726624972965e+00,-4.446551506096262374e-01,1.430483652505010715e-02,-8.955876108390078416e-01,2.379042407009751798e+02
4.039505209335658265e+00,7.101494020801440321e+00,5.141650525281805884e+00,-4.636033419589984383e-01,1.679420156749854981e-02,-8.858836809187525807e-01,2.380332112250331420e+02
4.129036533385439967e+00,7.396505571118388467e+00,5.152441011575085383e+00,-4.708517518079114450e-01,2.384179404342122791e-02,-8.818901273266483987e-01,2.392938549436435380e+02
4.210024031212803663e+00,7.701954157820072311e+00,5.158973228029088531e+00,-4.780513225113317555e-01,3.089324920566911478e-02,-8.777884370386085378e-01,2.405544986622539341e+02
4.278224194992836793e+00,8.009400677371433019e+00,5.161617820925108902e+00,-4.851993653015320707e-01,3.794606244628357522e-02,-8.735798030264969594e-01,2.418151423808643301e+02
4.329358896091651587e+00,8.310873912948714803e+00,5.160744034566466354e+00,-4.922932406428294771e-01,4.499772235417369426e-02,-8.692655349203244342e-01,2.430757860994747261e+02
4.359113328501505791e+00,8.598683169559432571e+00,5.156719844435122546e+00,-4.993303630824305062e-01,5.204571517132803443e-02,-8.648470570200682550e-01,2.443364298180851222e+02
4.363133363535427911e+00,8.865237855233996100e+00,5.149912089890785083e+00,-5.063082059523839051e-01,5.908752926657268034e-02,-8.603259059626475747e-01,2.455970735366955182e+02
4.337022328501402235e+00,9.102869745556990466e+00,5.140686606460361574e+00,-5.132243059027332688e-01,6.612065960832992639e-02,-8.557037280528916323e-01,2.468577172553059143e+02
4.276337208729490413e+00,9.303653732468232462e+00,5.129408357765502302e+00,-5.200762672469079195e-01,7.314261221780675448e-02,-8.509822762692994536e-01,2.481183609739163103e+02
4.176584259021669077e+00,9.459222822705568134e+00,5.116441567135986190e+00,-5.268617661014827203e-01,8.015090858415628572e-02,-8.461634069572854244e-01,2.493790046925267063e+02
4.087855921449513374e+00,9.538947959671146393e+00,5.106944397254411072e+00,-5.335785543036569711e-01,8.714309002340615840e-02,-8.412490762243913789e-01,2.502343218031786307e+02
3.925371032734352728e+00,9.615438253674644997e+00,5.091853503950284576e+00,-4.721890503421155016e-01,2.042584910862376910e-02,-8.812606228722595914e-01,2.514949655217890268e+02
3.724075714784863322e+00,9.641594745552776402e+00,5.074578059036862321e+00,-3.978908378909337129e-01,-5.456951770437647176e-02,-9.158084127479734216e-01,2.527556092403994228e+02
3.491829008337054674e+00,9.626635389354975203e+00,5.054010084296999494e+00,-3.105550098724403907e-01,-1.362286944851857085e-01,-9.407429662995042685e-01,2.540162529590098188e+02
3.236492267433741521e+00,9.578018691453204170e+00,5.029040414138016502e+00,-2.119038775582342826e-01,-2.214107486421325321e-01,-9.518792082304956548e-01,2.552768966776202149e+02
2.965929938984029235e+00,9.501622019763210858e+00,4.998558295603940493e+00,-1.058105238849583879e-01,-3.057130296281601600e-01,-9.462260176885659568e-01,2.565375403962306109e+02
2.688010830983686539e+00,9.401881956944928120e+00,4.961450987815256397e+00,2.229176667220023403e-03,-3.843918324751768867e-01,-9.231673466375215353e-01,2.577981841148410354e+02
2.410609759549732889e+00,9.281900015589071629e+00,4.916603360691837565e+00,1.064121577853875955e-01,-4.535910048788723836e-01,-8.848342516926164247e-01,2.590588278334514598e+02
2.141609474082361242e+00,9.143516214434043832e+00,4.862897492814576061e+00,2.020682838993276831e-01,-5.112107773704959168e-01,-8.353633638975520581e-01,2.603194715520618843e+02
1.888902766536422861e+00,8.987352255149456681e+00,4.799212268281875637e+00,2.864725796636790611e-01,-5.570071610024976971e-01,-7.795360695264682560e-01,2.615801152706723087e+02
1.734261949483345333e+00,8.877650318499380688e+00,4.752616507601834073e+00,3.588157289843061926e-01,-5.920765985521623254e-01,-7.215930806766113204e-01,2.624028434911867862e+02
1.517492771533923035e+00,8.702927916495836413e+00,4.672583899812695840e+00,4.728530920012695704e-01,-5.391128325436805868e-01,-6.969700905860798379e-01,2.636634872097972107e+02
1.329662546294956504e+00,8.524788559741415028e+00,4.579591192225386465e+00,5.847912796812446690e-01,-4.736105186830771863e-01,-6.585683228044898474e-01,2.649241309284076351e+02
1.170496191398900931e+00,8.350794585654085722e+00,4.472489369056555475e+00,6.878319300220322452e-01,-3.979638824661513308e-01,-6.070518794095224324e-01,2.661847746470180596e+02
1.039763341463037616e+00,8.188632394988371033e+00,4.350124326464233526e+00,7.762658179751125154e-01,-3.163643163068128317e-01,-5.452751591730108371e-01,2.674454183656284840e+02
9.667755825915170798e-01,8.090018398896075880e+00,4.261610014549402692e+00,8.469545333967970491e-01,-2.337126144865030175e-01,-4.775420737364376444e-01,2.682784215348174257e+02
8.760681335035185313e-01,7.957528590827010362e+00,4.115771244083267000e+00,8.603713246409983029e-01,-2.536770905676153931e-01,-4.420510349005460915e-01,2.695390652534278502e+02
8.118068257930697307e-01,7.845977276780939036e+00,3.954252736278596636e+00,8.736378154058187517e-01,-2.756915852887920626e-01,-4.009377972876856377e-01,2.707997089720382746e+02
7.722959852226419786e-01,7.750820867815105153e+00,3.778549966709610963e+00,8.861987688142802799e-01,-2.998761846680208509e-01,-3.531657061791315666e-01,2.720603526906486991e+02
7.558454289705615059e-01,7.668075191968401150e+00,3.590153295791856713e+00,8.972187622787953787e-01,-3.262586402008869624e-01,-2.975798923132649820e-01,2.733209964092591235e+02
7.607707630210724936e-01,7.594219553055936878e+00,3.390548506238316051e+00,9.054875860236288876e-01,-3.547006461334367144e-01,-2.329800059868307738e-01,2.745816401278695480e+02
7.853934079387709932e-01,7.526111870343717314e+00,3.181217338864525956e+00,9.093302579302291466e-01,-3.847951074909615743e-01,-1.582757317581000300e-01,2.758422838464799725e+02
8.280403838076033640e-01,7.460912892361700521e+00,2.963638026936204817e+00,9.065670220187009853e-01,-4.157426059506761362e-01,-7.276207930979643190e-02,2.771029275650903969e+02
8.870438791355318431e-01,7.396017692678685584e+00,2.739285829252312343e+00,8.946049466991594645e-01,-4.462411277784867347e-01,2.347009204026444598e-02,2.783635712837008214e+02
9.607406231536961272e-01,7.328992827678105115e+00,2.509633562154945263e+00,8.707658168483136674e-01,-4.744619086745462400e-01,1.290456873568265883e-01,2.796242150023112458e+02
1.047471076041308402e+00,7.257517670223801787e+00,2.276152130656436512e+00,8.329098562685324225e-01,-4.982117662454703111e-01,2.409278051726313485e-01,2.808848587209216703e+02
1.145578446944356399e+00,7.179328531498027743e+00,2.040311058853973236e+00,7.802443215117347286e-01,-5.153433797876714184e-01,3.544573312229734041e-01,2.821455024395320947e+02
1.253202382914121227e+00,7.091536446515736891e+00,1.803529027422057895e+00,7.139601525166012763e-01,-5.243288976001863055e-01,4.640475274795079486e-01,2.834061461581425192e+02
1.368069791482864561e+00,6.989957190382845909e+00,1.567124392807835553e+00,6.372564137123671868e-01,-5.247346524932720024e-01,5.644092554655861793e-01,2.846667898767529437e+02
1.487694265379506220e+00,6.869679864731719654e+00,1.332365655097114576e+00,5.546111913479150335e-01,-5.173199994671997537e-01,6.517564304116245655e-01,2.859274335953633681e+02
1.609579846365213118e+00,6.727742438497079647e+00,1.100534546247923684e+00,4.706560476224307399e-01,-5.037118667244210313e-01,7.244012977331221181e-01,2.871880773139737926e+02
1.731229376921880281e+00,6.565212307880635478e+00,8.729391306651487215e-01,3.892251301229855409e-01,-4.858737468767111434e-01,7.825793890569382460e-01,2.884487210325842170e+02
1.850152782337511903e+00,6.385060612277673187e+00,6.509016385543350269e-01,3.129130656825849788e-01,-4.656457357660029328e-01,8.278039998019242063e-01,2.897093647511946415e+02
1.963866754399522963e+00,6.190081740973282898e+00,4.357463043974267869e-01,2.431047558272065034e-01,-4.444936086213472914e-01,8.621632731617410172e-01,2.909700084698050659e+02
2.069892456359234245e+00,5.982959687985045960e+00,2.287998445083701815e-01,1.802544476443590504e-01,-4.234506949133989839e-01,8.878050704303206420e-01,2.922306521884154904e+02
2.165753430074970787e+00,5.766331978327571051e+00,3.139193547856091587e-02,1.242127403404478109e-01,-4.031714041024221928e-01,9.066553998356805533e-01,2.934912959070259149e+02
2.248973698662903864e+00,5.542852676628582387e+00,-1.551443063122356358e-01,7.449681321031721704e-02,-3.840235501526552131e-01,9.203130650760413811e-01,2.947519396256363393e+02
2.317076062709761075e+00,5.315255967517693136e+00,-3.294718439463954485e-01,3.047692698046839191e-02,-3.661779997359074224e-01,9.300456061028603560e-01,2.960125833442467638e+02
2.348975023734767298e+00,5.187074221084401415e+00,-4.222486106786160209e-01,-8.509972854394485045e-03,-3.496798190746399082e-01,9.368306167573433596e-01,2.967184104208452595e+02
2.395281857371835965e+00,4.959356478106005106e+00,-5.779756995182740997e-01,-1.082910676937479250e-01,-3.014304204490220185e-01,9.473187142064036781e-01,2.979790541394556840e+02
2.429719982231075104e+00,4.734529173043890538e+00,-7.168467550361838914e-01,-2.122869584159083334e-01,-2.463759115458936666e-01,9.456390207137459480e-01,2.992396978580661084e+02
2.459412006037885234e+00,4.513221116377512665e+00,-8.363175168697836170e-01,-3.162538376801884987e-01,-1.861476909452961237e-01,9.302325232479713435e-01,3.005003415766765329e+02
2.491477968685113176e+00,4.295443441049858535e+00,-9.338367285114493876e-01,-4.155800363583473378e-01,-1.231879557577786333e-01,9.011758768057510638e-01,3.017609852952869574e+02
2.533038781047012744e+00,4.080589951632109802e+00,-1.006845217272882342e+00,-5.062437251340233813e-01,-6.028608407558209287e-02,8.602806976965479135e-01,3.030216290138973818e+02
2.543963244979894345e+00,4.032458801251994629e+00,-1.020234825306543858e+00,-5.855752083478741321e-01,-0.000000000000000000e+00,8.106180823102477895e-01,3.033057147002567717e+02
2.601451564712239595e+00,3.819877654661365529e+00,-1.065426962538360112e+00,-5.622983822464209247e-01,3.637298591192297120e-02,8.261340903381900747e-01,3.045663584188671962e+02
2.675215584800311852e+00,3.608891262065073491e+00,-1.084157989688924628e+00,-5.368584203609738648e-01,7.408513108490520638e-02,8.404132494431844069e-01,3.058270021374776206e+02
2.763321533213079384e+00,3.398966534928137051e+00,-1.077619578968542324e+00,-5.092421236389420569e-01,1.129407313862857004e-01,8.531804326785931147e-01,3.070876458560880451e+02
2.863845068199559751e+00,3.189786009012862245e+00,-1.046994289900040176e+00,-4.794848416420470216e-01,1.526951221904931932e-01,8.641634604024469590e-01,3.083482895746984696e+02
2.974870484669170700e+00,2.981239360712837794e+00,-9.934559957736361913e-01,-4.476767496705593707e-01,1.930579210276348601e-01,8.731060456398700431e-01,3.096089332933088940e+02
3.094489908822559254e+00,2.773419960915451732e+00,-9.181703069690069219e-01,-4.139663761568332934e-01,2.337000303391027767e-01,8.797818679826731048e-01,3.108695770119193185e+02
3.220802495680522792e+00,2.566626384372989289e+00,-8.222949912986006193e-01,-3.785604717501446226e-01,2.742643820610590755e-01,8.840084942810071400e-01,3.121302207305297429e+02
3.351913644091470079e+00,2.361368909701780261e+00,-7.069803915236362313e-01,-3.417196522207558984e-01,3.143798670694611386e-01,8.856596290152970452e-01,3.133908644491401674e+02
3.485934244098420010e+00,2.158381163178984874e+00,-5.733698401927855848e-01,-3.037497653965784417e-01,3.536773510349189853e-01,8.846741837458841351e-01,3.146515081677505918e+02
3.620979972224572130e+00,1.958637181178077391e+00,-4.226000719525063731e-01,-2.649895397434747224e-01,3.918062620092294113e-01,8.810609495811833058e-01,3.159121518863610163e+02
3.755170651305788532e+00,1.763374294247395779e+00,-2.558016334774779743e-01,-2.257956382904952042e-01,4.284500590835026435e-01,8.748982092794173049e-01,3.171727956049714408e+02
3.886629692984265638e+00,1.574122373582246937e+00,-7.409929117011901378e-02,-1.865266314793310176e-01,4.633390156168387675e-01,8.663283282660174667e-01,3.184334393235818652e+02
4.013483642922341055e+00,1.392740131054931441e+00,1.213875632238560487e-01,-1.475275224747265579e-01,4.962591540517629074e-01,8.555480595105676711e-01,3.196940830421922897e+02
4.133861851237650598e+00,1.221459330733942084e+00,3.295445089382165738e-01,-1.091162884304570369e-01,5.270567552217353402e-01,8.427958307765274215e-01,3.209547267608027141e+02
4.245896293657877685e+00,1.062937956915168680e+00,5.492616943022426979e-01,-7.157349903772164401e-02,5.556384936941728414e-01,8.283375510990480528e-01,3.222153704794131386e+02
4.347721572518931765e+00,9.203235955042177174e-01,7.794334365049380153e-01,-3.513555049069679026e-02,5.819677868925099418e-01,8.124524528310256288e-01,3.234760141980235630e+02
4.369372635380829095e+00,8.902313560335913811e-01,8.325616862562009723e-01,8.467482058952190987e-06,6.060582983568790771e-01,7.954202278802481318e-01,3.237605842313056428e+02
4.458988580703040050e+00,7.674459168479268456e-01,1.072335021764377228e+00,-2.723970875828858693e-03,6.566600318531197189e-01,7.541817967501783793e-01,3.250212279499160672e+02
4.537324457153930624e+00,6.639282619320027168e-01,1.319743063928999982e+00,-5.921987800589194849e-03,7.125728260662096414e-01,7.015731591306105797e-01,3.262818716685264917e+02
4.605604274110604024e+00,5.782587668724088470e-01,1.573333961267107339e+00,-9.642056883092451139e-03,7.730031310603771022e-01,6.343289289555668065e-01,3.275425153871369162e+02
4.665040657507269373e+00,5.093251317864420091e-01,1.831658091952382605e+00,-1.390521082966205031e-02,8.358208283268562244e-01,5.488261911086156353e-01,3.288031591057473406e+02
4.716836655528406475e+00,4.562967745476365633e-01,2.093267541049956826e+00,-1.865537229872547831e-02,8.968936765889078400e-01,4.418525885170616618e-01,3.300638028243577651e+02
4.762187469008539509e+00,4.186057961788815507e-01,2.356715578366700647e+00,-2.370904493079486683e-02,9.497419491260282731e-01,3.121347645789592784e-01,3.313244465429681895e+02
4.802282127207785578e+00,3.959340690329056778e-01,2.620556136728888763e+00,-2.872884907288979564e-02,9.863082380026474416e-01,1.623906181990202591e-01,3.325850902615786140e+02
4.838305128440508973e+00,3.882061429824626986e-01,2.883343290499974287e+00,-3.327350425637297382e-02,9.994460879389145402e-01,6.254743006057034106e-04,3.338457339801890384e+02
4.871438064286904179e+00,3.955878023274169708e-01,3.143630734150351103e+00,-3.694102926571268125e-02,9.862373213048285514e-01,-1.611561553967648941e-01,3.351063776987994629e+02
4.902861245798489698e+00,4.184902396443529460e-01,3.399971260689490737e+00,-3.952392182417188010e-02,9.496053810651852167e-01,-3.109461044227456172e-01,3.363670214174098874e+02
4.933755350209776402e+00,4.575799453808548911e-01,3.650916239772099114e+00,-4.105685723811294818e-02,8.967002345362712346e-01,-4.407301031882500664e-01,3.376276651360203118e+02
4.965303107191237686e+00,5.137945469836603385e-01,3.895015095290813356e+00,-4.173898919134399338e-02,8.355804826979108535e-01,-5.477801691514684324e-01,3.388883088546307363e+02
4.998691044636746739e+00,5.883649719501952147e-01,4.130814782267248297e+00,-4.181824820059603515e-02,7.727252946687400703e-01,-6.333615500616863736e-01,3.401489525732411607e+02
5.035111315393371534e+00,6.828444585798589817e-01,4.356859262852959880e+00,-4.151365075043886299e-02,7.122655036246473559e-01,-7.006814319986637285e-01,3.414095962918515852e+02
5.075763628247152326e+00,7.991450999345991457e-01,4.571688981250927597e+00,-4.098800824216079081e-02,6.563296398410135568e-01,-7.533600646745923779e-01,3.426702400104620096e+02
5.108425491266392449e+00,8.973533894279789314e-01,4.721768149476851306e+00,-4.035058424030640162e-02,6.057098217322965938e-01,-7.946618414196665592e-01,3.435916933961127597e+02
5.156971123178904826e+00,1.049449623137565180e+00,4.917093947202896942e+00,-3.835266400818259508e-02,5.422796683548739560e-01,-8.393222470853513029e-01,3.448523371147231842e+02
5.208214024265984676e+00,1.220913307812256487e+00,5.100322940246891257e+00,-3.602803668796153436e-02,4.727963306869927274e-01,-8.804348983663281558e-01,3.461129808333336086e+02
5.258529842631045170e+00,1.406404087493916988e+00,5.273119369373092447e+00,-3.339352198345359179e-02,3.981580139392947859e-01,-9.167088243414356352e-01,3.473736245519440331e+02
5.304278283370105207e+00,1.601275561364458033e+00,5.437143713125359490e+00,-3.048659202826804054e-02,3.196596915379653070e-01,-9.470418413736295671e-01,3.486342682705544576e+02
5.341802337589327543e+00,1.801465634332337640e+00,5.594053286630245481e+00,-2.736349596915937932e-02,2.388948117364101953e-01,-9.706598312559199249e-01,3.498949119891648820e+02
5.367427185719362726e+00,2.003400948426192318e+00,5.745502839258889161e+00,-2.409402181112253391e-02,1.575987812532485266e-01,-9.872092494808056840e-01,3.511555557077753065e+02
5.377458813841401231e+00,2.203913136828444141e+00,5.893145151363446743e+00,-2.075397679835113904e-02,7.746852715607356610e-02,-9.967787616855218191e-01,3.524161994263857309e+02
5.377509761595017146e+00,2.273795776166757321e+00,5.944498418702254483e+00,-1.741718878752641919e-02,0.000000000000000000e+00,-9.998483092623299262e-01,3.528595070291463571e+02
5.366574001501056124e+00,2.469498063536784471e+00,6.089483293064626324e+00,-1.674739085995500046e-02,0.000000000000000000e+00,-9.998597526150274639e-01,3.541201507477567816e+02
5.336571283786826214e+00,2.660667738287170625e+00,6.232325868380409695e+00,-1.607757820238849694e-02,0.000000000000000000e+00,-9.998707473864539841e-01,3.553807944663672060e+02
5.289039284030384813e+00,2.848870094580202128e+00,6.372470543200514648e+00,-1.540775171626641675e-02,0.000000000000000000e+00,-9.998812935479141073e-01,3.566414381849776305e+02
5.225507005636257141e+00,3.035448205052313053e+00,6.509360743132345029e+00,-1.473791230311082175e-02,0.000000000000000000e+00,-9.998913910725233389e-01,3.579020819035880550e+02
