2.776994537853970435e+00,4.020418687152492510e+00,4.816662234597905545e+00,2.744001207959267941e-01,-5.708713883062462857e-01,-7.738284252471473446e-01,1.519802342250494007e+02
2.781157104195565388e+00,3.998993807829239966e+00,4.807804659988013540e+00,2.883112816167542336e-01,-5.998126426602973238e-01,-7.463922551831410068e-01,1.520510633424949845e+02
2.897873193899280331e+00,3.468050443930125848e+00,4.605629543983935648e+00,3.016610520461495137e-01,-6.286620517843735101e-01,-7.167877191502879386e-01,1.537765288846654244e+02
3.036728739579830361e+00,2.930282117954207344e+00,4.421716034301142351e+00,3.175844977966564286e-01,-6.631351858820121459e-01,-6.777844878753679358e-01,1.555019944268358643e+02
3.183443668556158901e+00,2.408048603882380956e+00,4.238909774851508772e+00,3.366009279127532561e-01,-7.044100715557630732e-01,-6.249050059161618265e-01,1.572274599690063042e+02
3.328475901495937528e+00,1.923797612043395056e+00,4.040201423451859064e+00,3.590476931245478176e-01,-7.533232753411180926e-01,-5.509889262873352012e-01,1.589529255111767441e+02
3.466032775115794440e+00,1.500103395760150837e+00,3.806499229845426768e+00,3.844134768406589076e-01,-8.089785405989765588e-01,-4.447246335358839286e-01,1.606783910533471840e+02
3.593482010307144758e+00,1.159652742068550291e+00,3.518531148629068017e+00,4.095767236758082741e-01,-8.650196003691051905e-01,-2.898068294575959492e-01,1.624038565955176239e+02
3.711788497056998981e+00,9.251379628034273050e-01,3.163710553854370389e+00,4.253972443408872706e-01,-9.023093281131161492e-01,-6.982163638326031874e-02,1.641293221376880638e+02
3.826316221221967684e+00,8.192587639393197341e-01,2.735072975007685425e+00,4.151051831351224575e-01,-8.851473876894427883e-01,2.102422150780189070e-01,1.658547876798585037e+02
3.945963735492001412e+00,8.521023126963686023e-01,2.259299441160684818e+00,3.665368440886174750e-01,-7.867977036428944748e-01,4.965884769784982833e-01,1.675802532220289436e+02
4.079533774545752500e+00,1.005199141144174524e+00,1.796986238876914888e+00,2.917201799098488868e-01,-6.316165817691603568e-01,7.183034388526947644e-01,1.693057187641993835e+02
4.232044244674473710e+00,1.241050088913057348e+00,1.375693581338512939e+00,2.154061144764804481e-01,-4.718289221880579420e-01,8.549723235479620431e-01,1.710311843063698234e+02
4.403610293052662605e+00,1.519106534214272219e+00,9.917916670511875976e-01,1.513715614092882022e-01,-3.370744281241848661e-01,9.292295089488215032e-01,1.727566498485402633e+02
4.589295006795766518e+00,1.798935279858017822e+00,6.465471242757524495e-01,1.014981393508963409e-01,-2.317918006809779607e-01,9.674557813385455951e-01,1.744821153907107032e+02
4.778601489261085966e+00,2.040139375439879554e+00,3.462888838819623838e-01,6.328151892286643099e-02,-1.509450295264057051e-01,9.865145956467584742e-01,1.762075809328811431e+02
4.954364500257394610e+00,2.202282362031083629e+00,1.032369740569643451e-01,3.377009098303576651e-02,-8.841803236959584755e-02,9.955108399745763448e-01,1.779330464750515830e+02
5.090925476480006040e+00,2.244818465232225169e+00,-6.289722634529662515e-02,1.061025234929551322e-02,-3.929138130873828516e-02,9.991714617121205677e-01,1.796585120172220229e+02
5.150288873113959554e+00,2.200820146629861362e+00,-1.262049477211898418e-01,-7.896110403326194946e-03,0.000000000000000000e+00,9.999688252343162942e-01,1.808079789710990326e+02
5.169386239454459187e+00,2.018858033991909551e+00,-1.404099622229172117e-01,-6.773995230828162677e-03,1.040085942457456836e-01,9.945533295463026002e-01,1.825334445132694725e+02
5.096293935265211239e+00,1.715292369174032050e+00,-6.634257015278038905e-02,-5.518126543001202963e-03,2.118828339110715164e-01,9.772794968550545525e-01,1.842589100554399124e+02
4.947336003282085670e+00,1.355769243508250010e+00,6.031551845935390760e-02,-4.162480327204056904e-03,3.198301153191381863e-01,9.474657624909051945e-01,1.859843755976103523e+02
4.742261168978772368e+00,1.005720528397496816e+00,2.107695135804492914e-01,-2.754622821785888444e-03,4.237656677571806085e-01,9.057676693741174567e-01,1.877098411397807922e+02
4.506302853086753935e+00,7.305090426397123915e-01,3.593407733176600116e-01,-1.347823947234613826e-03,5.200429710750499313e-01,8.541390352899473903e-01,1.894353066819512321e+02
4.373999893916077575e+00,6.224764150696442400e-01,4.335406228635014791e-01,8.467482058952190987e-06,6.060582983568790771e-01,7.954202278802481318e-01,1.903781708735612881e+02
4.148887804383716293e+00,5.308223379986052315e-01,5.439783865146797792e-01,5.584496634251669839e-03,5.205859580677842935e-01,8.537910011589423531e-01,1.921036364157317280e+02
3.954367598684446872e+00,5.923123871065076873e-01,6.201114176689075386e-01,1.188689879874700421e-02,4.159946188387282917e-01,9.092893811841031848e-01,1.938291019579021679e+02
3.791492615493322837e+00,7.842469329172447878e-01,6.704393134997362891e-01,1.874908653578418252e-02,2.918678705296189335e-01,9.562748652487835788e-01,1.955545675000726078e+02
3.660724965386076946e+00,1.084249242328787277e+00,7.000824007083643608e-01,2.583284064788831866e-02,1.510854210065726011e-01,9.881831105130909343e-01,1.972800330422430477e+02
3.562035951778003362e+00,1.470211782966488689e+00,7.114522585430678170e-01,3.266142614873948635e-02,5.301947051465426101e-04,9.994663326673416393e-01,1.990054985844134876e+02
3.494945348650156269e+00,1.920242912355570208e+00,7.045675222140698191e-01,3.874399792191764169e-02,-1.500371396973168847e-01,9.879209276741101053e-01,2.007309641265839275e+02
3.458503758336075151e+00,2.412614062075239207e+00,6.770563214989726575e-01,4.373428900376602479e-02,-2.908535673241474662e-01,9.557675001485207433e-01,2.024564296687543674e+02
3.451216282676737190e+00,2.925707523224065021e+00,6.238456741067044398e-01,4.751854694923732941e-02,-4.150302731355534624e-01,9.085658259459581387e-01,2.041818952109248073e+02
3.470899566113970547e+00,3.437964961020476995e+00,5.364971607079858096e-01,5.018774724991317826e-02,-5.196805837908836656e-01,8.528852682845127209e-01,2.059073607530952472e+02
3.503436356754435099e+00,3.841128324044757569e+00,4.355695756737451574e-01,5.194392941761561550e-02,-6.052149264965294151e-01,7.943656091136236386e-01,2.073095153913473041e+02
3.558176520258593545e+00,4.307789658238807107e+00,2.811005631170810370e-01,4.040844633346200865e-02,-5.702636599272146167e-01,8.204672544540297929e-01,2.090349809335177440e+02
3.623228034650407547e+00,4.737949369714895553e+00,1.157043311919184331e-01,2.846751372552393591e-02,-5.331338921459340963e-01,8.455518042719881722e-01,2.107604464756881839e+02
3.692105737743071270e+00,5.135144283206027005e+00,-4.582190560831363862e-02,1.618086574777329381e-02,-4.939388325625478360e-01,8.693460814143005866e-01,2.124859120178586238e+02
3.760303750562575154e+00,5.502853824779465164e+00,-2.040873067978281885e-01,3.619840349262468376e-03,-4.528427584909165415e-01,8.915830487611253741e-01,2.142113775600290637e+02
3.823846507897857183e+00,5.844501212339089591e+00,-3.592740215212542609e-01,-9.134111570997929808e-03,-4.100601994661589034e-01,9.120127196588776464e-01,2.159368431021995036e+02
3.878859917074224839e+00,6.163460708850630354e+00,-5.111610396419056235e-01,-2.199167729651130970e-02,-3.658520222638367292e-01,9.304131684016231363e-01,2.176623086443699435e+02
3.921154634672233463e+00,6.463066496354950452e+00,-6.590952495573921821e-01,-3.485858307690060942e-02,-3.205183996554020198e-01,9.466006732874274743e-01,2.193877741865403834e+02
3.945777759635218374e+00,6.746623233086085136e+00,-8.019059108983593864e-01,-4.763894439944912212e-02,-2.743890164662759479e-01,9.604380243509603732e-01,2.211132397287108233e+02
3.946485934001149776e+00,7.017418547205418911e+00,-9.377513419428550323e-01,-6.023879783613653865e-02,-2.278112215439112298e-01,9.718401795428751599e-01,2.228387052708812632e+02
3.915084609119585224e+00,7.278737936304455758e+00,-1.063877745384005591e+00,-7.256951578345825771e-02,-1.811371029466205262e-01,9.807767408105985130e-01,2.245641708130517031e+02
3.840564212303787972e+00,7.533882804511775610e+00,-1.176258589862433368e+00,-8.455081918055766532e-02,-1.347105902603797367e-01,9.872710954178678389e-01,2.262896363552221430e+02
3.707942666773433871e+00,7.786192706328161961e+00,-1.269067322470370129e+00,-9.611315897657164709e-02,-8.885564833706584287e-02,9.913964567367304914e-01,2.280151018973925829e+02
3.496692944880429810e+00,8.039073313602633775e+00,-1.333914362272074605e+00,-1.071993226456118831e-01,-4.386643517461120967e-02,9.932693698536130267e-01,2.297405674395630228e+02
3.405608135083624255e+00,8.127204009011057551e+00,-1.349771680260273055e+00,-1.177652196089313680e-01,0.000000000000000000e+00,9.930414659270077049e-01,2.303381826824545158e+02
3.115801356879295714e+00,8.367737979678885551e+00,-1.373352654733988487e+00,-7.875138647958604410e-02,-3.907659485333632443e-02,9.961281237181345283e-01,2.320636482246249557e+02
2.850822524671848601e+00,8.545877989748724701e+00,-1.362396131342970440e+00,-3.937569398339047649e-02,-7.815319118257080255e-02,9.961634571852687747e-01,2.337891137667953956e+02
2.763838341418220601e+00,8.596006021950151066e+00,-1.350251490668976651e+00,0.000000000000000000e+00,-1.168706797253571267e-01,9.931471412739065752e-01,2.345302884015720792e+02
2.666776769714246598e+00,8.626197961741592479e+00,-1.309093203564692276e+00,-5.332688242263806250e-02,-3.421532542532011029e-02,9.979907590339308632e-01,2.362557539437425191e+02
2.715708660633286975e+00,8.522843889868047640e+00,-1.248611881499279264e+00,-1.123271146430267903e-01,5.857585242823967753e-02,9.919432891190288482e-01,2.379812194859129590e+02
2.858871420914705030e+00,8.311978082527122780e+00,-1.171053090802836705e+00,-1.754742498797899064e-01,1.595363602317894647e-01,9.714715319519753312e-01,2.397066850280833989e+02
3.058983914662745995e+00,8.019549677102366658e+00,-1.076426050776785326e+00,-2.401408200965088058e-01,2.648803478404813116e-01,9.339008447641975463e-01,2.414321505702538389e+02
3.289297294455196585e+00,7.671435960656914688e+00,-9.625048412661525443e-01,-3.028880841176224137e-01,3.693205204700165667e-01,8.785562939614696143e-01,2.431576161124242788e+02
3.530761165438833338e+00,7.293469462141016102e+00,-8.245369115739988874e-01,-3.602112322504334996e-01,4.671469061645518450e-01,8.074785670353806788e-01,2.448830816545947187e+02
3.770008002589198881e+00,6.911474929902730935e+00,-6.546207188421903078e-01,-4.094399209300431108e-01,5.536670224830912979e-01,7.251288019128105944e-01,2.466085471967651586e+02
3.997944527942339565e+00,6.551313348818053051e+00,-4.406709956043609600e-01,-4.493084654680903900e-01,6.262432474376086189e-01,6.371352273242376629e-01,2.483340127389355985e+02
4.208802396467556051e+00,6.238930908917813767e+00,-1.648361443823817274e-01,-4.799419506582054407e-01,6.844460009309205617e-01,5.488072483195414186e-01,2.500594782811060384e+02
4.330909307503512551e+00,6.073552696092481717e+00,4.009007205888581032e-02,-5.024143593103287397e-01,7.294795710168736624e-01,4.641544646212399372e-01,2.511312277370609252e+02
4.507600518995825034e+00,5.865633334318910208e+00,4.230521495112449237e-01,-5.375467275120898725e-01,7.485384928137026606e-01,3.882443051961400049e-01,2.528566932792313651e+02
4.647649717809515302e+00,5.737961406143758047e+00,8.532243557401038014e-01,-5.702178854596154922e-01,7.626352451494362583e-01,3.053506933966648740e-01,2.545821588214018050e+02
4.735429652600630313e+00,5.680750309863565661e+00,1.285804717348247195e+00,-5.991575539705152886e-01,7.706914972134997210e-01,2.168982287684325383e-01,2.563076243635722449e+02
4.762886045611112174e+00,5.684448362812950073e+00,1.685289914670810463e+00,-6.232485648601401307e-01,7.719844607611884291e-01,1.249048387494769291e-01,2.580330899057426564e+02
4.743497556539264082e+00,5.739644930574125503e+00,2.029809311010942974e+00,-6.417023968845275705e-01,7.662949543137156372e-01,3.178170583830829121e-02,2.597585554479130678e+02
4.698937556695479856e+00,5.836975626986225407e+00,2.299277620156015445e+00,-6.541786210845303984e-01,7.539588241731096652e-01,-5.997018565457658268e-02,2.614840209900834793e+02
4.646590813902295558e+00,5.967100852685437218e+00,2.463781369638853747e+00,-6.608093161571323426e-01,7.358006569298090049e-01,-1.480825477279635038e-01,2.632094865322538908e+02
4.640129120904862958e+00,5.984974284046649551e+00,2.476400718932833200e+00,-6.621269057880017073e-01,7.129750327387287534e-01,-2.307695025838888137e-01,2.634230972097987546e+02
4.591911432339149890e+00,6.140311235508903565e+00,2.512965313261399825e+00,-6.708387222929521609e-01,7.238153166536471783e-01,-1.614521478641271213e-01,2.651485627519691661e+02
4.549813832248800871e+00,6.316478135567375141e+00,2.440864771320721882e+00,-6.768030403666515094e-01,7.319495847794116328e-01,-7.866034510287761572e-02,2.668740282941395776e+02
4.510656187918253401e+00,6.512078280852922063e+00,2.293694725590273098e+00,-6.777857211601310272e-01,7.349973142775041435e-01,1.963324212393286958e-02,2.685994938363099891e+02
4.471330428232620946e+00,6.725776500905447541e+00,2.095220211645106634e+00,-6.705997324355021938e-01,7.295257722143578816e-01,1.344921801908116055e-01,2.703249593784804006e+02
4.428482922074000960e+00,6.956296178878879743e+00,1.862487777636969710e+00,-6.512582584438373345e-01,7.111896341944445865e-01,2.647111350568241983e-01,2.720504249206508121e+02
4.378170545473683006e+00,7.202417782420404535e+00,1.608057785185998734e+00,-6.158359205163123073e-01,6.756337474616617156e-01,4.052963832712276893e-01,2.737758904628212235e+02
4.315454411847801985e+00,7.462979083727729446e+00,1.341649228854385090e+00,-5.622111219714996944e-01,6.203693935614816857e-01,5.468642151976182975e-01,2.755013560049916350e+02
4.233888703932597863e+00,7.736877414112259821e+00,1.071412469484333219e+00,-4.919347307980812545e-01,5.468365730741020503e-01,6.774732341452255335e-01,2.772268215471620465e+02
4.124851050047796619e+00,8.023074501652319057e+00,8.049965502714595544e-01,-4.105572781438951435e-01,4.608430146596605992e-01,7.868077511072651964e-01,2.789522870893324580e+02
3.976644278800061549e+00,8.320604701991371144e+00,5.505508636364958575e-01,-3.256291265871396612e-01,3.704716762046678658e-01,8.698944815598040892e-01,2.806777526315028695e+02
3.773275424859778404e+00,8.628587779521945222e+00,3.177923404320859291e-01,-2.438544457378116481e-01,2.830061938718592685e-01,9.276004007783029692e-01,2.824032181736732809e+02
3.495362793210876617e+00,8.946269660727365292e+00,1.192283443266619752e-01,-1.694464284337602600e-01,2.031028711550496579e-01,9.643843277550800952e-01,2.841286837158436924e+02
3.159808386454483031e+00,9.274226535817950534e+00,-3.723106639528139111e-02,-1.041235434873227089e-01,1.327335760734051906e-01,9.856673300228678825e-01,2.858541492580141039e+02
2.858403808176709138e+00,9.615307438590889433e+00,-1.561637706170727335e-01,-4.791705104664858300e-02,7.202903900807428039e-02,9.962508588496002959e-01,2.875796148001845154e+02
2.811628429788095129e+00,9.680975715899224454e+00,-1.754221325020159372e-01,-0.000000000000000000e+00,2.016684970649313888e-02,9.997966284064554454e-01,2.879043401519957115e+02
2.649159175091907681e+00,1.003565158674852498e+01,-2.613336257338523816e-01,0.000000000000000000e+00,1.056290905817932647e-02,9.999442109199035977e-01,2.896298056941661230e+02
2.625751197345651988e+00,1.039416222876848828e+01,-3.112970915482959344e-01,0.000000000000000000e+00,9.553339203324964606e-04,9.999995436684462335e-01,2.913552712363365345e+02
2.693580566656083253e+00,1.074309674209299459e+01,-3.143746456131820133e-01,0.000000000000000000e+00,-8.653216276344577462e-03,9.999625602231689836e-01,2.930807367785069459e+02
2.812128833913437820e+00,1.106920241325302889e+01,-2.534885414655133062e-01,0.000000000000000000e+00,-1.826008055475400113e-02,9.998332708297588134e-01,2.948062023206773574e+02
2.887972141616583333e+00,1.124085030894772252e+01,-1.897397466745885941e-01,0.000000000000000000e+00,-2.786260007479053613e-02,9.996117623943168162e-01,2.957771818658384291e+02
3.018378280146507997e+00,1.151812289066658224e+01,-1.849144937851192674e-02,-3.112181973089998832e-02,-3.106118304118705986e-02,9.990328499327332246e-01,2.975026474080088406e+02
3.140275825722597780e+00,1.175335495047197298e+01,2.251811165200039433e-01,-7.022652871265636088e-02,-3.504147211854321403e-02,9.969154075932098458e-01,2.992281129501792520e+02
3.255410672326034760e+00,1.194794280187635138e+01,5.192342118364745573e-01,-1.205604480233239406e-01,-4.010078348235922990e-02,9.918957130346498507e-01,3.009535784923496635e+02
3.365049000897788023e+00,1.210317496678732851e+01,8.482215917816160466e-01,-1.871418952247674017e-01,-4.668081287184010220e-02,9.812231207841091152e-01,3.026790440345200750e+02
3.470092570907133744e+00,1.222023713611863016e+01,1.201271769421285773e+00,-2.777673812978871393e-01,-5.542385535936360935e-02,9.590482147129091306e-01,3.044045095766904865e+02
3.571156351115175376e+00,1.230021647568173826e+01,1.570664358524445747e+00,-4.038670828420914405e-01,-6.714764877111786823e-02,9.123500274900691043e-01,3.061299751188608980e+02
3.668616583046624413e+00,1.234410542672492994e+01,1.950819063567595268e+00,-5.775129028545678000e-01,-8.229346733727058161e-02,8.122232650386839170e-01,3.078554406610313094e+02
3.762634273152726028e+00,1.235280512222530191e+01,2.337564922108058330e+00,-7.896428291978340175e-01,-9.844655444886178663e-02,6.056174355264118958e-01,3.095809062032017209e+02
3.853156535924312287e+00,1.232712852376495682e+01,2.727594103989392949e+00,-9.600496364503291469e-01,-1.063822296370614262e-01,2.588194675232876607e-01,3.113063717453721324e+02
3.939895889624818182e+00,1.226780337794194686e+01,3.118028740563210555e+00,-9.870535544827778729e-01,-9.842756050980432103e-02,-1.266384456435041828e-01,3.130318372875425439e+02
4.022285296319610737e+00,1.217547509516854554e+01,3.506044058971195199e+00,-9.075202990197306363e-01,-8.226171466068410432e-02,-4.118736665146520148e-01,3.147573028297129554e+02
4.099404196988940541e+00,1.205070966783496722e+01,3.888498469516800338e+00,-8.077341862177388476e-01,-6.710878859775452898e-02,-5.857148580223221490e-01,3.164827683718833669e+02
4.169867753023027035e+00,1.189399677077583917e+01,4.261522164686389225e+00,-7.221952080484032033e-01,-5.538109182583423468e-02,-6.894686476846514367e-01,3.182082339140537783e+02
4.231667649595213909e+00,1.170575322752521963e+01,4.620010355278608039e+00,-6.549966466936724130e-01,-4.663579477149806807e-02,-7.541912857266882542e-01,3.199336994562241898e+02
4.281947741189727985e+00,1.148632708520615786e+01,4.956954781391010201e+00,-6.028022510409127843e-01,-4.005438076726925561e-02,-7.968846169436070159e-01,3.216591649983946013e+02
4.316690990959869190e+00,1.123600262541946293e+01,5.262525957702701263e+00,-5.618122387696717901e-01,-3.499417013012508237e-02,-8.265242987508067962e-01,3.233846305405650128e+02
4.330284858534704462e+00,1.095500675710797722e+01,5.522785970072100703e+00,-5.290709430924486201e-01,-3.101326862140549659e-02,-8.480106805605007736e-01,3.251100960827354243e+02
4.330205350855110602e+00,1.086158083787185546e+01,5.594928075117736377e+00,-5.024574301261119924e-01,-2.781425176103374808e-02,-8.641544412372345052e-01,3.256514658846608654e+02
4.314128940596240191e+00,1.054879821606377632e+01,5.788485044868282969e+00,-4.578775212864434341e-01,-3.402057573935545615e-02,-8.883641009895353324e-01,3.273769314268312769e+02
4.271947415944255866e+00,1.021226378266417356e+01,5.925707406082527662e+00,-4.110529662004980267e-01,-4.027530374282949077e-02,-9.107213398653810632e-01,3.291023969690016884e+02
4.207578269675659399e+00,9.858466513341387127e+00,6.022030415712364970e+00,-3.622688392030847804e-01,-4.652502682680872970e-02,-9.309117627472618395e-01,3.308278625111720999e+02
4.123723878688627664e+00,9.493838591605900490e+00,6.087533428120825540e+00,-3.118753808174498654e-01,-5.271362707786650392e-02,-9.486595914026622056e-01,3.325533280533425113e+02
4.022148655707239229e+00,9.124775923412933309e+00,6.128259819843060008e+00,-2.602770340545031980e-01,-5.878459575518719948e-02,-9.637428271306045513e-01,3.342787935955129228e+02
3.903860675565790750e+00,8.757657615318796829e+00,6.147008389729091249e+00,-2.079169212822598034e-01,-6.468351663459155632e-02,-9.760054285301332788e-01,3.360042591376833343e+02
3.769216803413457662e+00,8.398864819500559520e+00,6.143699871052676897e+00,-1.552580750357220318e-01,-7.036047027844996582e-02,-9.853650766890398316e-01,3.377297246798537458e+02
3.617962341739162202e+00,8.054799285431233358e+00,6.115366551676973295e+00,-1.027632426183559960e-01,-7.577211619114604391e-02,-9.918156594723015473e-01,3.394551902220241573e+02
3.449209358044609708e+00,7.731901925980654511e+00,6.055763643023888143e+00,-5.087528083424548014e-02,-8.088325419726387355e-02,-9.954243341362001285e-01,3.411806557641945687e+02
3.298338138425835453e+00,7.436355015328453888e+00,5.961150480412738872e+00,0.000000000000000000e+00,-8.566774403188669174e-02,-9.963237614513102969e-01,3.429054765168128824e+02
3.229191460995313623e+00,7.170842225465473341e+00,5.836602846862755989e+00,-6.651742363042123518e-02,-8.451174225115203054e-02,-9.941997775976647578e-01,3.446309420589832939e+02
3.255322499230152822e+00,6.933356591972546390e+00,5.690771667517509513e+00,-1.414310380616228546e-01,-8.275201468831695772e-02,-9.864833326203927832e-01,3.463564076011537054e+02
3.351567635693243563e+00,6.719616835857016746e+00,5.529921483781144786e+00,-2.248972085283788558e-01,-8.020582794410298366e-02,-9.710758316217863451e-01,3.480818731433241169e+02
3.499430830512765933e+00,6.525491031846152978e+00,5.358350054115110339e+00,-3.163128822720648881e-01,-7.667341604144640999e-02,-9.455513459253674924e-01,3.498073386854945284e+02
3.685154238872692556e+00,6.346962768267232491e+00,5.178951159572140917e+00,-4.139541604738769531e-01,-7.196835404757656596e-02,-9.074483506194996885e-01,3.515328042276649398e+02
3.898283730656858292e+00,6.180104530273483832e+00,4.993593553994008616e+00,-5.147254008265633729e-01,-6.596797879588778279e-02,-8.548134226353251153e-01,3.532582697698353513e+02
4.130578988189384404e+00,6.021056509304963278e+00,4.803365683390881102e+00,-6.142481297808597418e-01,-5.867462359534832833e-02,-7.869285378016611654e-01,3.549837353120057628e+02
4.375153967959476198e+00,5.866009600575860183e+00,4.608718221431948869e+00,-7.074746234018439717e-01,-5.026151212188406658e-02,-7.049492447273353335e-01,3.567092008541761743e+02
4.625757651536478221e+00,5.711191781985887062e+00,4.409523086653446278e+00,-7.897475958970554544e-01,-4.107022356208116232e-02,-6.120555297612969570e-01,3.584346663963465858e+02
4.876119710256932471e+00,5.552857417382785599e+00,4.205056669569487759e+00,-8.578756690088318315e-01,-3.154648038701174384e-02,-5.128880541578650920e-01,3.601601319385169973e+02
5.119292507466517428e+00,5.387279331170899077e+00,3.993905073129583094e+00,-9.106991544730255184e-01,-2.213972615332324492e-02,-4.124765236567680127e-01,3.618855974806874087e+02
5.346920473798706830e+00,5.210743791728674523e+00,3.773778957631392927e+00,-9.489386486293622802e-01,-1.321455022733709732e-02,-3.151837825773542989e-01,3.636110630228578202e+02
5.548360275306956524e+00,5.019548848413831976e+00,3.541213743432538141e+00,-9.745545723814785788e-01,-5.007490151179515812e-03,-2.240944231629591332e-01,3.653365285650282317e+02
5.709559552423145057e+00,4.810006823305582380e+00,3.291115912310102143e+00,-9.900172687004383798e-01,2.369905158693084990e-03,-1.409261906973387768e-01,3.670619941071986432e+02
5.811576700286288144e+00,4.578452201618933515e+00,3.016095994133421776e+00,-9.977613568169141356e-01,8.901594662031246316e-03,-6.627998532998892467e-02,3.687874596493690547e+02
5.833308671794290134e+00,4.491216627599731837e+00,2.912256295709798160e+00,-9.998929495611769136e-01,1.463179475832167287e-02,0.000000000000000000e+00,3.694014859855641362e+02
5.846957664258529697e+00,4.232573780959340226e+00,2.607643617201072406e+00,-9.972085866353637140e-01,2.444036413528014040e-02,7.055284077650787744e-02,3.711269515277345477e+02
5.787704771530633785e+00,3.953626637500307517e+00,2.290297695965020974e+00,-9.879656035578016082e-01,3.547141335543715218e-02,1.505514696747805858e-01,3.728524170699049591e+02
5.673123819693930869e+00,3.660832517388922014e+00,1.977206284609300813e+00,-9.695773003436529702e-01,4.770060545392027646e-02,2.400927131289974092e-01,3.745778826120753706e+02
5.516066082613686028e+00,3.360551410840226350e+00,1.685914275667515172e+00,-9.390829555764489411e-01,6.095419504965652463e-02,3.382422041254604106e-01,3.763033481542457821e+02
5.326002756337020472e+00,3.059078577553659084e+00,1.436821254332842690e+00,-8.936087229154574541e-01,7.484981069093478434e-02,4.425618105631532462e-01,3.780288136964161936e+02
5.110026790649256689e+00,2.762844224397049242e+00,1.242081032517660999e+00,-8.311856150606636850e-01,8.877388188341729658e-02,5.488621604843744173e-01,3.797542792385866051e+02
4.873648226110800508e+00,2.478609826906618352e+00,1.093421376801873457e+00,-7.517429459959903415e-01,1.019417707011771174e-01,6.515292921516101510e-01,3.814797447807570165e+02
4.621424649323196299e+00,2.213318169045596306e+00,9.748325748388964040e-01,-6.577750751178922384e-01,1.135583108543357922e-01,7.446049023405374445e-01,3.832052103229274280e+02
4.357454763952938848e+00,1.973941533089269340e+00,8.742427618820433066e-01,-5.541237369568464688e-01,1.230249552468406782e-01,8.232932311925638125e-01,3.849306758650978395e+02
4.085817808815632723e+00,1.767500111501627558e+00,7.819370828368565896e-01,-4.468043533840694304e-01,1.300848701218681736e-01,8.851236051323115861e-01,3.866561414072682510e+02
3.811013985742300214e+00,1.601078724792524000e+00,6.892855088099765215e-01,-3.414847032341014610e-01,1.348307670117314394e-01,9.301660398682300990e-01,3.883816069494386625e+02
3.538452088729091560e+00,1.481841787735403537e+00,5.876127092028826659e-01,-2.423943186404289296e-01,1.375967622394600465e-01,9.603708269788601148e-01,3.901070724916090739e+02
3.275035480848587088e+00,1.417046261266431628e+00,4.670619890659851170e-01,-1.519947038694116070e-01,1.388162019257015434e-01,9.785845247491771204e-01,3.918325380337794854e+02
3.029907880880695181e+00,1.414052090221176838e+00,3.153045227957668728e-01,-7.122918263346215972e-02,1.389122270586110042e-01,9.877397413868623799e-01,3.935580035759498969e+02
2.899828398138623253e+00,1.437860505556792567e+00,2.127528081743639832e-01,-0.000000000000000000e+00,1.382410334876689184e-01,9.903986150334931349e-01,3.945460524459348335e+02
2.698645317216579187e+00,1.525380106720894968e+00,4.008943461046441531e-03,-6.431926299304602357e-06,1.257681745412242980e-01,9.920596586048635590e-01,3.962715179881052450e+02
2.533243861333684510e+00,1.675811600955436687e+00,-2.398227368118995562e-01,-1.287204646462621374e-05,1.132574910200437740e-01,9.935656699796723279e-01,3.979969835302756564e+02
2.396690638130529738e+00,1.878647301429106742e+00,-5.050929587834027679e-01,-1.931730323644557151e-05,1.007148381688560412e-01,9.949153335834476364e-01,3.997224490724460679e+02
2.283278171827613168e+00,2.123536554695736989e+00,-7.809599013360535302e-01,-2.576462174603259773e-05,8.814613666044557316e-02,9.961075533937198134e-01,4.014479146146164794e+02
2.187947207712134468e+00,2.400256007696392579e+00,-1.057969423939925546e+00,-3.221091680376622374e-05,7.555735871275995330e-02,9.971414566182714712e-01,4.031733801567868909e+02
2.105772482098507759e+00,2.698682443956212484e+00,-1.326817016173631680e+00,-3.865310025769159107e-05,6.295451394516402011e-02,9.980163964985073743e-01,4.048988456989573024e+02
2.031458103483342104e+00,3.008767970426054372e+00,-1.577129341716721811e+00,-4.508808838150340907e-05,5.034363505172022996e-02,9.987319542183695775e-01,4.066243112411277139e+02
1.958789686835186616e+00,3.320517562297467418e+00,-1.796105816064787142e+00,-5.151280925077790436e-05,3.773076337106621991e-02,9.992879399061449508e-01,4.083497767832981253e+02
1.879985839558512728e+00,3.623969206307886104e+00,-1.966842327823499881e+00,-5.792421006632155915e-05,2.512193443335535709e-02,9.996843927235796734e-01,4.100752423254685368e+02
1.784881037947058546e+00,3.909177147982827449e+00,-2.066117589355920714e+00,-6.431926438396299705e-05,1.252316356481579344e-02,9.999215800438358004e-01,4.118007078676389483e+02
1.680329558244969324e+00,4.137164336491965244e+00,-2.075559968967889191e+00,-7.069497921097834560e-05,-5.956837023416438096e-05,9.999999957269145590e-01,4.133066251526077508e+02
1.528796678857132774e+00,4.367953861770529578e+00,-1.981692225623242543e+00,-4.981623374651274487e-05,-6.227602315725153212e-05,9.999999968200198319e-01,4.150320906947781623e+02
1.346841537873986638e+00,4.563438089732715142e+00,-1.788016981834791519e+00,-2.476173941308707939e-05,-6.552520659569814338e-05,9.999999975466516977e-01,4.167575562369485738e+02
1.144870792048515495e+00,4.725152726480427390e+00,-1.524398258551046714e+00,5.860419929655127909e-06,-6.949643068703387466e-05,9.999999975679507713e-01,4.184830217791189853e+02
9.314353278270799397e-01,4.854509995882004603e+00,-1.211540753748666654e+00,4.413811836627646652e-05,-7.446046061283796670e-05,9.999999962537331477e-01,4.202084873212893967e+02
7.141121888498804804e-01,4.952808002454111680e+00,-8.637011912415752946e-01,9.335230060082456993e-05,-8.084278446208980598e-05,9.999999923748960073e-01,4.219339528634598082e+02
5.002850118153919778e-01,5.021236382031208478e+00,-4.905552872145533261e-01,1.589712070883864440e-04,-8.935254892148882389e-05,9.999999833721385789e-01,4.236594184056302197e+02
2.979047264763174940e-01,5.060878504384286103e+00,-9.846481957623601233e-02,2.508376685862766307e-04,-1.012662176754399856e-04,9.999999634128079462e-01,4.253848839478006312e+02
1.163102154999344912e-01,5.072710150273557872e+00,3.086892762963949211e-01,3.886373394904282276e-04,-1.191367169325733183e-04,9.999999173837270661e-01,4.271103494899710427e+02
-3.280507834709300158e-02,5.057594234876800598e+00,7.289986894170440435e-01,6.183033810416954353e-04,-1.489208694751259076e-04,9.999997977617312017e-01,4.288358150321414541e+02
-1.341793271262337883e-01,5.016270754086718853e+00,1.162277835947491011e+00,1.077635043778517451e-03,-2.084891089855303060e-04,9.999993976173205956e-01,4.305612805743118656e+02
-1.673940952213127664e-01,4.949340647201315946e+00,1.601183624962236429e+00,2.455624008449105132e-03,-3.871929578790451413e-04,9.999969099913972315e-01,4.322867461164822771e+02
-1.207602789151071415e-01,4.857263830364948021e+00,2.031134914659856516e+00,9.916955136557238371e-01,-1.286077056584924994e-01,2.573720431921478987e-04,4.340122116586526886e+02
-6.118858283174375030e-03,4.740437683984498385e+00,2.446995987617842427e+00,3.056343491981247402e-03,-3.276247437483050147e-04,-9.999952757020835747e-01,4.357376772008231001e+02
1.559219985339098391e-01,4.599275461420948119e+00,2.851522957178040052e+00,1.678356688339063254e-03,-1.489207769585868001e-04,-9.999985804697069103e-01,4.374631427429935115e+02
3.498309943091502117e-01,4.434204095327024753e+00,3.245987701791430702e+00,1.219025425795148589e-03,-8.935251561549185256e-05,-9.999992529962905552e-01,4.391886082851639230e+02
5.635151339675210647e-01,4.245647710484933945e+00,3.630344423074248539e+00,9.893595243115808988e-04,-5.956835543149310554e-05,-9.999995088095507967e-01,4.409140738273343345e+02
7.870417582577451387e-01,4.034017142116545607e+00,4.003223649947883267e+00,8.515599182387960852e-04,-4.169785263746102585e-05,-9.999996365534312703e-01,4.426395393695047460e+02
1.011587216424823632e+00,3.799704222864622061e+00,4.361752903528582692e+00,7.596934919579533029e-04,-2.978418196223134567e-05,-9.999997109893087321e-01,4.443650049116751575e+02
1.228501965682819774e+00,3.543080116925437117e+00,4.701180537859690922e+00,6.940746067051631416e-04,-2.127441634436191682e-05,-9.999997589038907009e-01,4.460904704538455690e+02
1.428394086325319501e+00,3.264497419186838112e+00,5.014253496264346133e+00,6.448604382527997484e-04,-1.489209174321818840e-05,-9.999997919665988277e-01,4.478159359960159804e+02
1.600135134692376893e+00,2.964296146759765271e+00,5.290267499024789544e+00,6.065827492651992966e-04,-9.928061301919470342e-06,-9.999998159793839214e-01,4.495414015381863919e+02
1.729684117476051775e+00,2.642814172923973359e+00,5.513665282079806218e+00,5.759605966812865550e-04,-5.956836841853466584e-06,-9.999998341169398230e-01,4.512668670803568034e+02
1.798606307897695711e+00,2.300403133607782369e+00,5.661999321459354029e+00,5.509061073486304057e-04,-2.707653130588153369e-06,-9.999998482475532802e-01,4.529923326225272149e+02
1.801956201162223214e+00,2.264383829530825398e+00,5.672574173421551791e+00,5.300273656876602468e-04,0.000000000000000000e+00,-9.999998595354860909e-01,4.531684601903048133e+02
1.803876123853052738e+00,1.906980854093650812e+00,5.726439119599671557e+00,6.148589468779332937e-04,1.093599588812912554e-01,-9.940020228057676599e-01,4.548939257324752248e+02
1.771041032271827298e+00,1.552398989468040114e+00,5.689730135061705774e+00,6.941666141820093628e-04,2.201075042289444283e-01,-9.754753737100783084e-01,4.566193912746456363e+02
1.757027007877566493e+00,1.223752171968194080e+00,5.572489684971900559e+00,7.647220470374976094e-04,3.280798764832130732e-01,-9.446496757247897502e-01,4.583448568168160477e+02
1.803239580080750804e+00,9.678431659656366870e-01,5.403341143645906897e+00,8.242578295552722457e-04,4.294190013449196153e-01,-9.031050004750070803e-01,4.598871246437954028e+02
1.954386553934441606e+00,7.389028282532157377e-01,5.145007293617637423e+00,8.629951284941074713e-04,4.496128097666344248e-01,-8.932231392732502551e-01,4.616125901859658143e+02
2.199015706409842341e+00,5.756048415758543424e-01,4.824677510420420035e+00,9.096582368045495314e-04,4.739385370098824768e-01,-8.805574573296307550e-01,4.633380557281362258e+02
2.499911052505687792e+00,4.744720302227851128e-01,4.459797749550900470e+00,9.667897834615254895e-04,5.037218019777267575e-01,-8.638653897048003127e-01,4.650635212703066372e+02
2.825215580967378681e+00,4.323249842329148218e-01,4.061980005130799043e+00,1.038022982563955535e-03,5.408568703059291050e-01,-8.411140043722746817e-01,4.667889868124770487e+02
3.145118274239467659e+00,4.462588475817521050e-01,3.638522939711325233e+00,1.128587999733500751e-03,5.880707542597944926e-01,-8.088087006662597611e-01,4.685144523546474602e+02
3.428754272864222852e+00,5.136340126570799747e-01,3.193367669275533061e+00,1.245858108919011475e-03,6.492082242670780268e-01,-7.606097089714012327e-01,4.702399178968178717e+02
3.648324663180262828e+00,6.317181064678485392e-01,2.734411774659928351e+00,1.399078916754371849e-03,7.290913713770155180e-01,-6.844149434091627571e-01,4.719653834389882832e+02
3.795004795803505804e+00,7.972503524919888340e-01,2.282987748820501039e+00,1.594071112687498511e-03,8.307598468079137044e-01,-5.566287235392900490e-01,4.736908489811586946e+02
3.882128829741783971e+00,1.006654155512787474e+00,1.871504967624966431e+00,1.807230018099133684e-03,9.419199076137200199e-01,-3.358327285429802411e-01,4.754163145233291061e+02
3.927642797563399846e+00,1.255843454757214372e+00,1.521648296390074817e+00,1.918305503152573348e-03,9.999010190060365622e-01,1.393815965923839509e-02,4.771417800654995176e+02
3.944300255399725952e+00,1.539742563457330959e+00,1.227970194168156448e+00,1.743726773555117878e-03,9.090004779401236190e-01,4.167914232821566811e-01,4.788672456076699291e+02
3.940866731976545356e+00,1.852805315431916178e+00,9.747785994315327773e-01,1.354977669098185542e-03,7.064388537655570399e-01,7.077727812835996613e-01,4.805927111498403406e+02
3.923023131418870157e+00,2.189528651435081130e+00,7.516832742802931344e-01,9.804096316993610172e-04,5.112354649506422044e-01,8.594401306511435523e-01,4.823181766920107520e+02
3.893972741248360681e+00,2.544450332152987659e+00,5.522351760214783134e-01,6.989491265095204488e-04,3.645442303429415887e-01,9.311858115294663341e-01,4.840436422341811635e+02
3.854786136941559249e+00,2.912144790734367383e+00,3.730819348241778965e-01,4.977545012982717652e-04,2.596818319293998645e-01,9.656941018802213117e-01,4.857691077763515750e+02
3.804520154059418235e+00,3.287218120663662368e+00,2.135288503759606438e-01,3.521108628289735675e-04,1.837706883401326319e-01,9.829690789261552597e-01,4.874945733185219865e+02
3.740123413951174314e+00,3.664303092241623094e+00,7.544791947012072231e-02,2.436891095407175923e-04,1.272590681748493879e-01,9.918694824334939319e-01,4.892200388606923980e+02
3.656118512828787193e+00,4.038055085671847344e+00,-3.647701923945630836e-02,1.606029057929247745e-04,8.395231708360247069e-02,9.964697600343931372e-01,4.909455044028628095e+02
3.544027569683989576e+00,4.403149920074626245e+00,-1.141369213506111951e-01,9.524748980590215454e-05,4.988700599249764472e-02,9.987548635981804424e-01,4.926709699450332209e+02
3.391480925428951743e+00,4.754284755261239503e+00,-1.449356316917961018e-01,4.266555305319233926e-05,2.247943304273164467e-02,9.997473047074085795e-01,4.943964354872036324e+02
3.384036718495820661e+00,4.768749109346225090e+00,-1.450839953323485032e-01,-4.636159474099297807e-07,-1.156627263298117030e-06,9.999999999992237321e-01,4.944692307941007243e+02
3.183918293139798905e+00,5.101509096900715967e+00,-1.195029199845240725e-01,2.638174215878778817e-02,-1.259258859604787950e-02,9.995726238713813494e-01,4.961946963362711358e+02
2.944601224045231724e+00,5.413470883200220740e+00,-4.051978149276297403e-02,5.864332346146543945e-02,-2.799006776635638502e-02,9.978865249715663799e-01,4.979201618784415473e+02
2.680535385318236763e+00,5.703246997005985364e+00,8.570703575034531452e-02,9.881810596360866839e-02,-4.716427658592924760e-02,9.939871794685739559e-01,4.996456274206119588e+02
2.403306540455369511e+00,5.969340844904579058e+00,2.592058526391675111e-01,1.498644888226595140e-01,-7.152716748416647341e-02,9.861158650491406163e-01,5.013710929627823703e+02
2.122840813140125515e+00,6.210152296680957917e+00,4.861954037833402520e-01,2.161015296940935748e-01,-1.031400920150286893e-01,9.709079514984951809e-01,5.030965585049527817e+02
1.848434512524328666e+00,6.423978405878339792e+00,7.798992023348633174e-01,3.036415462318035052e-01,-1.449202661974523798e-01,9.417005510496524456e-01,5.048220240471231932e+02
1.589717218372145302e+00,6.609009764944043575e+00,1.162277202409313759e+00,4.199932713540731610e-01,-2.004513637593073605e-01,8.851129322207068606e-01,5.065474895892936047e+02
1.357649024055953113e+00,6.763322552862133463e+00,1.611620592750849346e+00,5.695377514902891791e-01,-2.718242912302104020e-01,7.757179283248384349e-01,5.082729551314640162e+02
1.165807353109052258e+00,6.887465502036950404e+00,2.056322902698227040e+00,7.372747329420751283e-01,-3.518798284154911471e-01,5.767205168185681741e-01,5.099984206736344277e+02
1.027909294208029012e+00,6.987041898976415588e+00,2.469826873355959407e+00,8.673802888801309674e-01,-4.139748792150972356e-01,2.761815233520634183e-01,5.117238862158048391e+02
9.466824986639714723e-01,7.070116647668790222e+00,2.865439292117480719e+00,9.011138778824715478e-01,-4.300744492741548908e-01,-5.504313916508317417e-02,5.134493517579752506e+02
9.102641159945169536e-01,7.144693081168704829e+00,3.246788904152157151e+00,8.543072632723249793e-01,-4.077346929478051774e-01,-3.223530984602281935e-01,5.151748173001457189e+02
9.042536978538608938e-01,7.218797474154143856e+00,3.613395074311278599e+00,7.799884478163339185e-01,-3.722643108098250830e-01,-5.030281345713698560e-01,5.169002828423161873e+02
9.188651338427898940e-01,7.300504782764986267e+00,3.962846469502308899e+00,7.084982027806355775e-01,-3.381440087438830067e-01,-6.194262877915548415e-01,5.186257483844866556e+02
9.479023908951283994e-01,7.397941912813199572e+00,4.290485287026597483e+00,6.483062250286701911e-01,-3.094160848333291081e-01,-6.956728577682828041e-01,5.203512139266571239e+02
9.881151063966465697e-01,7.519294557820371594e+00,4.588797299847305666e+00,5.994600997503516382e-01,-2.861032283459850056e-01,-7.475242681928818689e-01,5.220766794688275922e+02
1.038866512777862683e+00,7.672816197023239582e+00,4.846427843490393350e+00,5.599722161029441203e-01,-2.672567997308267773e-01,-7.842224940604511918e-01,5.238021450109980606e+02
1.102078912300385793e+00,7.866838059785521864e+00,5.046694885266152397e+00,5.277944287836919823e-01,-2.518992734663694222e-01,-8.111595385446759288e-01,5.255276105531685289e+02
1.182451018308157575e+00,8.109778948686878763e+00,5.165404457373733216e+00,5.012622723145236936e-01,-2.392362458385214607e-01,-8.315660845844849991e-01,5.272530760953389972e+02
1.220752929616071292e+00,8.223009687181699334e+00,5.190156464840359973e+00,4.791095088962391002e-01,-2.286633769037966224e-01,-8.474474252413284336e-01,5.279648397486990916e+02
1.336251842062808226e+00,8.516756333629457387e+00,5.191901204987409812e+00,4.471532981814352881e-01,-3.562883718325268734e-01,-8.204343508303340027e-01,5.296903052908695599e+02
1.504701375077134751e+00,8.806694579033170101e+00,5.133392576295484844e+00,4.063117332653365943e-01,-4.796726796448897989e-01,-7.777048899249695557e-01,5.314157708330400283e+02
1.665814722716654650e+00,8.986027732406386193e+00,5.087897675396548358e+00,3.588157289843061926e-01,-5.920765985521623254e-01,-7.215930806766113204e-01,5.326653420764455404e+02
1.942780487497754338e+00,9.153923585927561390e+00,5.056605337134276290e+00,3.469542297758629879e-01,-5.730771363917716021e-01,-7.424320562756194786e-01,5.343908076186160088e+02
2.270055675182329313e+00,9.215214449680059872e+00,5.062823265988263266e+00,3.344825662794848609e-01,-5.530835373047092718e-01,-7.630334288991540426e-01,5.361162731607864771e+02
2.618635839441338486e+00,9.178731061407090053e+00,5.091180085200593730e+00,3.214063296296442718e-01,-5.321036757116787141e-01,-7.833030381455958757e-01,5.378417387029569454e+02
2.963294483613850616e+00,9.053171590187920614e+00,5.129203584421216711e+00,3.077372691512449965e-01,-5.101553856544474019e-01,-8.031433593469451404e-01,5.395672042451274137e+02
3.286898823213449727e+00,8.847488373106797255e+00,5.168558259393019050e+00,2.934936882198992403e-01,-4.872671228145438183e-01,-8.224549872176086796e-01,5.412926697872978821e+02
3.585667340688174054e+00,8.571246139159516275e+00,5.206824571750775732e+00,2.787006965310269702e-01,-4.634783960560708849e-01,-8.411383347240881658e-01,5.430181353294683504e+02
3.861873968528923839e+00,8.234216407848451880e+00,5.244311292359043364e+00,2.633902897938586452e-01,-4.388399208167770849e-01,-8.590955005934042266e-01,5.447436008716388187e+02
4.117101688818999961e+00,7.846010822179033894e+00,5.281225113135380234e+00,2.476012339651756933e-01,-4.134134563694691900e-01,-8.762322426340926063e-01,5.464690664138092870e+02
4.352384040602645499e+00,7.416107727371604064e+00,5.317697706858909967e+00,2.313787399084100693e-01,-3.872713030468799555e-01,-8.924599803659366559e-01,5.481945319559797554e+02
4.568293217139736129e+00,6.953877943859974486e+00,5.353802969828124425e+00,2.147739253500761669e-01,-3.604954532481645657e-01,-9.076977410884751185e-01,5.499199974981502237e+02
4.764983912436743019e+00,6.468609999568262658e+00,5.389566698857773730e+00,1.978430734077156750e-01,-3.331764101443236981e-01,-9.218739599467655754e-01,5.516454630403206920e+02
4.942197470805840709e+00,5.969535057575676262e+00,5.424969969361653988e+00,1.806467097033956914e-01,-3.054117087340209591e-01,-9.349280477349594110e-01,5.533709285824911603e+02
5.099226743587335520e+00,5.465851764308940375e+00,5.459946656974385526e+00,1.632485319216991637e-01,-2.773041932712285718e-01,-9.468116503400257900e-01,5.550963941246616287e+02
5.234837949418836622e+00,4.966751250004346474e+00,5.494374778371351908e+00,1.457142354006071838e-01,-2.489601211016452820e-01,-9.574895402575792636e-01,5.568218596668320970e+02
5.347141338628403240e+00,4.481442538095507189e+00,5.528060517252295192e+00,1.281102849292455048e-01,-2.204871739171840594e-01,-9.669401020918311218e-01,5.585473252090025653e+02
5.433397106533656817e+00,4.019178666058964566e+00,5.560712843572507502e+00,1.105026856893699255e-01,-1.919924622382245816e-01,-9.751553983335887743e-01,5.602727907511730336e+02
5.489736223935841153e+00,3.589283891893382261e+00,5.591905402307413731e+00,9.295580499131418650e-02,-1.635806071633732761e-01,-9.821408266020097422e-01,5.619982562933435020e+02
5.510766946287089851e+00,3.201182465305262070e+00,5.621020680905041367e+00,7.553129137232815482e-02,-1.353519754655291563e-01,-9.879144025477142321e-01,5.637237218355139703e+02
5.489025791599474680e+00,2.864429591813179243e+00,5.647169143998544527e+00,5.828712942315669721e-02,-1.074011310350315856e-01,-9.925057216943407035e-01,5.654491873776844386e+02
5.414215486385437259e+00,2.588745426955294082e+00,5.669072746051432965e+00,4.127685836943148501e-02,-7.981554905212071005e-02,-9.959546671875474377e-01,5.671746529198549069e+02
5.272150062379359348e+00,2.384053228442785333e+00,5.684897567404171959e+00,2.454897108580591375e-02,-5.267462093461969946e-02,-9.983099380092449460e-01,5.689001184620253753e+02
5.043296605220620066e+00,2.260523196843841731e+00,5.692013656562494361e+00,8.146498971714339482e-03,-2.604895985439800374e-02,-9.996274737345947070e-01,5.706255840041958436e+02
5.039866175602499609e+00,2.259531649076315318e+00,5.692038172541858287e+00,-7.893222081534517071e-03,-0.000000000000000000e+00,-9.999688480373634114e-01,5.706468845392142839e+02
4.723324303387548717e+00,2.213933630770902550e+00,5.691292468482374467e+00,-5.258636192550711179e-03,0.000000000000000000e+00,-9.999861732771080369e-01,5.723723500813847522e+02
4.359679397840575454e+00,2.215583420628398859e+00,5.691804189605675468e+00,-2.623995446192593783e-03,0.000000000000000000e+00,-9.999965573180231715e-01,5.740978156235552206e+02
4.239798566521915113e+00,2.220132614296651763e+00,5.693554734523652350e+00,1.064529351364108455e-05,0.000000000000000000e+00,-9.999999999433388798e-01,5.746554171717834834e+02
3.883930918233252871e+00,2.231830205131889677e+00,5.699632092155449747e+00,5.077942819261210307e-03,0.000000000000000000e+00,-9.999871071652496335e-01,5.763808827139539517e+02
3.590871550217300978e+00,2.243083573958220889e+00,5.691635619767907883e+00,1.014510983321466504e-02,0.000000000000000000e+00,-9.999485370490184266e-01,5.778973765012922286e+02
3.275099390376129627e+00,2.266865659768100283e+00,5.643335681933305814e+00,9.424480143912060404e-02,-3.319010275807668386e-02,-9.949956454581140308e-01,5.796228420434626969e+02
2.975280275496965388e+00,2.305920501342412887e+00,5.552887862502210226e+00,1.920383001802759282e-01,-7.182643254035800395e-02,-9.787554622337468757e-01,5.813483075856331652e+02
2.687378483010977703e+00,2.360633615380382633e+00,5.430787710960900405e+00,3.029411108428332056e-01,-1.156995353806292010e-01,-9.459599890450002269e-01,5.830737731278036335e+02
2.408688185778477653e+00,2.431443550898225947e+00,5.283385806615696900e+00,4.235019414040799290e-01,-1.634705161553801078e-01,-8.910238470292861646e-01,5.847992386699741019e+02
2.137556736368104726e+00,2.518838072542732398e+00,5.113719388285112188e+00,5.465222487815913910e-01,-2.123156123972770870e-01,-8.100836452608345395e-01,5.865247042121445702e+02
1.873218551608945459e+00,2.623351379813150697e+00,4.921910091229262818e+00,6.618489603604780225e-01,-2.582278147995537565e-01,-7.037573085472021983e-01,5.882501697543150385e+02
1.615722205453290927e+00,2.745561935087165839e+00,4.705179876206052825e+00,7.594953887479888310e-01,-2.972418558840839720e-01,-5.786311723206128965e-01,5.899756352964855068e+02
1.365943107688723845e+00,2.886090526435536319e+00,4.457487236597593494e+00,8.334438751357280406e-01,-3.269410293111628674e-01,-4.455119194271892624e-01,5.917011008386559752e+02
1.125683116437719233e+00,3.045598204729937919e+00,4.168736043845421513e+00,8.832303566496736424e-01,-3.470986018878679524e-01,-3.153199924837904455e-01,5.934265663808264435e+02
8.978675440610495162e-01,3.224783709899684325e+00,3.823453427430170137e+00,9.125270430295200352e-01,-3.591321576128475579e-01,-1.957510896729346972e-01,5.951520319229969118e+02
6.868602241380757922e-01,3.424379935746818759e+00,3.398763553476784605e+00,9.265670605255204029e-01,-3.650911248156135658e-01,-9.045414821867832356e-02,5.968774974651673801e+02
