-4.342393651336400318e-01,4.229529971941636823e+00,1.218272795926543584e+00,8.331623111873927012e-01,-4.684677337478575510e-01,2.939022722845620050e-01,1.876404180413565825e+02
-3.051374956597773247e-01,4.243891055042430693e+00,8.187660181607603338e-01,7.842097473320359668e-01,-4.902810807929624537e-01,3.803150457264463102e-01,1.894197588615860468e+02
-1.750579217002933841e-01,4.258106381366499882e+00,4.194781725792520732e-01,7.234130529362079454e-01,-5.078797110972486095e-01,4.676876670356944765e-01,1.911990996818155111e+02
-4.015779725618191798e-02,4.271864101590558072e+00,2.185668743761979421e-02,6.514075686221451056e-01,-5.198924123268380271e-01,5.526120331179609213e-01,1.929784405020449753e+02
1.212717451325232426e-01,4.283500266374876908e+00,-3.633760686766028258e-01,5.701545027262794330e-01,-5.254127517364547417e-01,6.315578226367524195e-01,1.947577813222744396e+02
3.360329030711764475e-01,4.293426481365250957e+00,-6.822440678761546584e-01,4.827305637853255282e-01,-5.242316976198465595e-01,7.015356940299726229e-01,1.965371221425039039e+02
5.956814235984400074e-01,4.305235160604432565e+00,-8.936851751330339155e-01,3.927711581216667414e-01,-5.168754484711945985e-01,7.606382767882945428e-01,1.983164629627333682e+02
8.719595312298513701e-01,4.319382913820801306e+00,-1.046192479688986099e+00,3.037872705274204388e-01,-5.044335150451201288e-01,8.082450885497074466e-01,2.000958037829628324e+02
1.151740546426628820e+00,4.334625522719982804e+00,-1.191128109510943833e+00,2.186244821423932450e-01,-4.882700531083495332e-01,8.448643033325173857e-01,2.018751446031922967e+02
1.434885958111134840e+00,4.352865459618517896e+00,-1.337709706568105839e+00,1.392119861320153251e-01,-4.697457151938779218e-01,8.717562652336785511e-01,2.036544854234217610e+02
1.733762146419122185e+00,4.384530073045215026e+00,-1.504316946874766803e+00,6.658297151990803797e-02,-4.500321139096441492e-01,8.905267005281740644e-01,2.054338262436512252e+02
1.913562258838145125e+00,4.415993069030264451e+00,-1.620017876934655821e+00,1.054433382684529484e-03,-4.300331969161960144e-01,9.028124598831572811e-01,2.064690383498061692e+02
2.198243589893961403e+00,4.503489296490752025e+00,-1.839291027894064845e+00,7.186477183757655502e-04,-2.930885733177905350e-01,9.560850232777412527e-01,2.082483791700356335e+02
2.448056378984154957e+00,4.651733961378720750e+00,-2.054470356452861246e+00,3.593238621057033826e-04,-1.465442878488801004e-01,9.892040449701096083e-01,2.100277199902650977e+02
2.561149681052786953e+00,4.770611622294221199e+00,-2.145137654856972276e+00,-0.000000000000000000e+00,0.000000000000000000e+00,1.000000000000000000e+00,2.110004795717728712e+02
2.682646831587922165e+00,5.060753756684388094e+00,-2.210183751502283300e+00,0.000000000000000000e+00,2.095770025616489236e-03,9.999978038715884310e-01,2.127798203920023354e+02
2.738057649807774663e+00,5.402336148132900639e+00,-2.205496871560427952e+00,0.000000000000000000e+00,4.191576858284886548e-03,9.999912153031350615e-01,2.145591612122317997e+02
2.781511302634924299e+00,5.755244276739450271e+00,-2.191430012219962364e+00,0.000000000000000000e+00,6.287392881251038443e-03,9.999802341500340086e-01,2.163385020324612640e+02
2.822683056306761085e+00,6.111543323218715962e+00,-2.176126219306841580e+00,0.000000000000000000e+00,8.383190476306321207e-03,9.999648604413247099e-01,2.181178428526907283e+02
2.862772246174431157e+00,6.472948257148633644e+00,-2.160843838491847357e+00,0.000000000000000000e+00,1.047894202560730945e-02,9.999450943796983626e-01,2.198971836729201925e+02
2.899011324348965246e+00,6.855737381697842636e+00,-2.146960617624179779e+00,0.000000000000000000e+00,1.257461991349544984e-02,9.999209363414844898e-01,2.216765244931496568e+02
2.913460364764612009e+00,7.068531750960798554e+00,-2.141978480114460570e+00,0.000000000000000000e+00,1.467019652831646516e-02,9.998923868766181888e-01,2.226255488225049248e+02
2.923405060123985155e+00,7.445128058714269415e+00,-2.140895734776063541e+00,0.000000000000000000e+00,1.493502204491356858e-02,9.998884663383801330e-01,2.244048896427343891e+02
2.920106800710772887e+00,7.796169228843974786e+00,-2.145448219850935700e+00,0.000000000000000000e+00,1.519984664267873438e-02,9.998844756580828053e-01,2.261842304629638534e+02
2.914398980225030744e+00,8.141715947244863472e+00,-2.150759022843868440e+00,0.000000000000000000e+00,1.546467026587997409e-02,9.998804148364781597e-01,2.279635712831933176e+02
2.908245113536661375e+00,8.486136821901903105e+00,-2.156172305908385933e+00,0.000000000000000000e+00,1.572949285878585610e-02,9.998762838743628922e-01,2.297429121034227819e+02
2.901969349696507106e+00,8.830585711507559665e+00,-2.161602817647156449e+00,0.000000000000000000e+00,1.599431436566556633e-02,9.998720827725776639e-01,2.315222529236522462e+02
2.895450093863806362e+00,9.176296030197576670e+00,-2.167061356396554839e+00,0.000000000000000000e+00,1.625913473078896901e-02,9.998678115320075444e-01,2.333015937438817105e+02
2.887678734915862577e+00,9.528100525892760686e+00,-2.172714865897399594e+00,0.000000000000000000e+00,1.652395389842665346e-02,9.998634701535819014e-01,2.350809345641111747e+02
2.873074696812714546e+00,9.908222863820107307e+00,-2.179815658617799468e+00,0.000000000000000000e+00,1.678877181285000700e-02,9.998590586382742895e-01,2.368602753843406390e+02
2.870188401918056353e+00,9.964570171584352209e+00,-2.181001498122109084e+00,0.000000000000000000e+00,1.705358841833126693e-02,9.998545769871028943e-01,2.371082621691142833e+02
2.844347737343276616e+00,1.037147170161660448e+01,-2.190443398798409991e+00,0.000000000000000000e+00,5.825643401640136221e-03,9.999830307955015485e-01,2.388876029893437476e+02
2.817385657950669309e+00,1.077317576779859465e+01,-2.200085164996004483e+00,0.000000000000000000e+00,-5.405869142971170271e-03,9.999853881826519242e-01,2.406669438095732119e+02
2.819583296296849451e+00,1.113252949906250322e+01,-2.203775003161168033e+00,0.000000000000000000e+00,-1.663669983677020653e-02,9.998616005320641875e-01,2.424462846298026761e+02
2.888723343633250007e+00,1.130179628669628755e+01,-2.189420313487216330e+00,0.000000000000000000e+00,-2.786260007479053613e-02,9.996117623943168162e-01,2.437986232411796550e+02
3.113232668578702178e+00,1.129312968956787699e+01,-2.135347747444294786e+00,-5.325957667635326104e-02,-1.557234507508109891e-02,9.984592728604999579e-01,2.455779640614091193e+02
3.420566017071204001e+00,1.112612974972166136e+01,-2.060899819795710020e+00,-1.073656343516595918e-01,-3.001088978384219841e-03,9.942150743301017002e-01,2.473573048816385835e+02
3.742761197118445793e+00,1.092485495997395084e+01,-1.983711649355524242e+00,-1.618249700406950431e-01,9.740657267244282047e-03,9.867714014235161590e-01,2.491366457018680478e+02
4.067343838342054596e+00,1.071577112813543131e+01,-1.906165890528529694e+00,-2.161150888306603846e-01,2.253320604706171570e-02,9.761078439419265118e-01,2.509159865220975121e+02
4.390770221811690632e+00,1.050310472802483908e+01,-1.828654899522970112e+00,-2.697082847558538998e-01,3.525309030884872519e-02,9.622965555158822237e-01,2.526953273423269763e+02
4.705205482776535497e+00,1.028088692998210796e+01,-1.751764640789414518e+00,-3.220969062596684140e-01,4.777893396817110144e-02,9.455002678195366661e-01,2.544746681625564406e+02
4.969380291223735036e+00,1.001600200603033741e+01,-1.679536242801190848e+00,-3.728170422110759219e-01,5.999715763324237755e-02,9.259631710348509293e-01,2.562540089827859333e+02
5.036762030839216031e+00,9.906305697670083177e+00,-1.657751759461665753e+00,-4.214681032439552277e-01,7.180690669145753380e-02,9.039957998239520620e-01,2.568839610938143210e+02
5.133441839747847624e+00,9.568675021458743046e+00,-1.601908690085481535e+00,-4.494224243272512687e-01,7.054972781204348065e-02,8.905291799921339901e-01,2.586633019140438137e+02
5.160271768468708942e+00,9.413208890807688078e+00,-1.567347435464341965e+00,-4.769433337063342382e-01,6.922451259086716269e-02,8.762037567196601096e-01,2.594657386486651376e+02
5.300096399284123905e+00,9.120927745950091037e+00,-1.442691401878995583e+00,-5.140455845020140968e-01,1.101559719667152687e-01,8.506602135365511907e-01,2.612450794688946303e+02
5.504613417841692780e+00,8.879132637703779807e+00,-1.283212751268916874e+00,-5.495008361608202385e-01,1.509823022952139771e-01,8.217378994863240305e-01,2.630244202891241230e+02
5.718093043671145459e+00,8.646691555215506142e+00,-1.094473897326010414e+00,-5.828897650331638092e-01,1.912408848682875251e-01,7.897255509190376221e-01,2.648037611093536157e+02
5.845021410507016846e+00,8.501115759295680974e+00,-9.342437471584955633e-01,-6.138622846817090029e-01,2.304881247402780775e-01,7.550154434175916363e-01,2.659891137915483910e+02
5.976112212642006760e+00,8.322654729574736621e+00,-6.424809014620066483e-01,-6.526842807127118951e-01,2.293356866493063695e-01,7.220861254307694432e-01,2.677684546117778837e+02
6.063419198719051550e+00,8.176799759261539791e+00,-3.257375356929390064e-01,-6.927227644976527987e-01,2.274224607155910793e-01,6.844079163107297248e-01,2.695477954320073763e+02
6.142818665718583482e+00,8.037995583488564577e+00,-5.632747511190148819e-03,-7.334943825837690889e-01,2.245924623927476604e-01,6.415171210142543989e-01,2.713271362522368690e+02
6.220790525265126547e+00,7.900715451733194783e+00,3.149243711111207045e-01,-7.743453844806845732e-01,2.206827917946329598e-01,5.930331617533605160e-01,2.731064770724663617e+02
6.298504739790582896e+00,7.763764625836701683e+00,6.355423635563928197e-01,-8.144461767631742122e-01,2.155353575248896980e-01,5.387225026045101561e-01,2.748858178926958544e+02
6.376172456211489425e+00,7.626884927236450729e+00,9.561685519037640413e-01,-8.528090664941904153e-01,2.090133702715667730e-01,4.785709008632141881e-01,2.766651587129253471e+02
6.453831761856261728e+00,7.490020580722378973e+00,1.276795847224776459e+00,-8.883372173416864692e-01,2.010214935844950590e-01,4.128526945566521333e-01,2.784444995331548398e+02
6.531489522732518260e+00,7.353159539315115900e+00,1.597423294607579036e+00,-9.199077047792882933e-01,1.915267517511056727e-01,3.421802420528867739e-01,2.802238403533843325e+02
6.609146974263957475e+00,7.216299200003268410e+00,1.918050764600032876e+00,-9.464821208411274833e-01,1.805756121340175990e-01,2.675145663893954140e-01,2.820031811736138252e+02
6.686804329699765681e+00,7.079438994550692144e+00,2.238678238638159623e+00,-9.672267881372652587e-01,1.683020424546566585e-01,1.901230202139152781e-01,2.837825219938433179e+02
6.764461575619622025e+00,6.942578771724205566e+00,2.559305713185963782e+00,-9.816163564520313800e-01,1.549226554878752882e-01,1.114822836258024946e-01,2.855618628140728106e+02
6.842118421525511529e+00,6.805718366647674600e+00,2.879933187357931690e+00,-9.894948122699691595e-01,1.407183303395289631e-01,3.314163540433501254e-02,2.873412036343023033e+02
6.919773218690557393e+00,6.668857132897742623e+00,3.200560665208808331e+00,-9.910786063692620385e-01,1.260057619946125806e-01,-4.342515332521247606e-02,2.891205444545317960e+02
6.997416836725896871e+00,6.531992114253236004e+00,3.521188188947553144e+00,-9.869036720509523075e-01,1.111053606365693669e-01,-1.169475990782381375e-01,2.908998852747612887e+02
7.074998776321061555e+00,6.395109704694842634e+00,3.841816082599705862e+00,-9.777336590085589085e-01,9.631242338470032138e-02,-1.864425089498140398e-01,2.926792260949907813e+02
7.152239791739280150e+00,6.258147348151998912e+00,4.162446761673930240e+00,-9.644541141138840423e-01,8.187655783892941463e-02,-2.512458776681749661e-01,2.944585669152202740e+02
7.227595916581913471e+00,6.120817903613547273e+00,4.483098188201410039e+00,-9.479751456142646582e-01,6.799120106853046019e-02,-3.109989065493194982e-01,2.962379077354497667e+02
7.292531182611616813e+00,5.981806048699386480e+00,4.803903864062075257e+00,-9.291567362665369423e-01,5.479225592567152359e-02,-3.656030198741427872e-01,2.980172485556792594e+02
7.299856900488292943e+00,5.835101668677275200e+00,5.125855929560160895e+00,-9.087613450776725887e-01,4.236324967868072833e-02,-4.151604181148306760e-01,2.997965893759087521e+02
7.267067533533499102e+00,5.771436845099247925e+00,5.252533085510149746e+00,-8.874313235737447680e-01,3.074407577672122124e-02,-4.599135220286383330e-01,3.005411582532050261e+02
7.076775194280211956e+00,5.629504378751294169e+00,5.482459811817556705e+00,-8.507380076179037465e-01,2.848093014659771813e-02,-5.248177579048790564e-01,3.023204990734345188e+02
6.797879172751260413e+00,5.499107636953051603e+00,5.652746131850293843e+00,-8.069514308629084365e-01,2.592473469042952047e-02,-5.900485542390010441e-01,3.040998398936640115e+02
6.502954799052946377e+00,5.371237421111514365e+00,5.815007084702293660e+00,-7.560226481321602465e-01,2.309084430449337769e-02,-6.541380346842258220e-01,3.058791807138935042e+02
6.205126234288058207e+00,5.243931158057129061e+00,5.976187580465651017e+00,-6.983347128240379176e-01,2.001372543241974541e-02,-7.154914951690789504e-01,3.076585215341229969e+02
5.906744782452878262e+00,5.116805917718544983e+00,6.137218685709604493e+00,-6.347362412190622472e-01,1.674643349361205902e-02,-7.725473843385534112e-01,3.094378623543524895e+02
5.608111432015789433e+00,4.989990093386017733e+00,6.298200069248828470e+00,-5.664973303807125937e-01,1.335671148156745112e-02,-8.239553221685773643e-01,3.112172031745819822e+02
5.308596333358410746e+00,4.864495043639060157e+00,6.458954784148319916e+00,-4.951875732267752017e-01,9.920204076751419631e-03,-8.687294497557066508e-01,3.129965439948114749e+02
5.004315768476429227e+00,4.745106899750028973e+00,6.618044371054926600e+00,-4.225021165155245506e-01,6.512300960497111046e-03,-9.063385413167102111e-01,3.147758848150409676e+02
4.673788779861735243e+00,4.654073633076240668e+00,6.764762211855624763e+00,-3.500785943974882852e-01,3.200568548579110946e-03,-9.367148627547471351e-01,3.165552256352704603e+02
4.486833451599678391e+00,4.633006005734308985e+00,6.820006629557065381e+00,-2.793467611515190185e-01,3.937469914031367576e-05,-9.601902860807274287e-01,3.174860967397102627e+02
4.135906874657735877e+00,4.671611131471217426e+00,6.847956432485364786e+00,-2.412197597089046353e-01,-2.934010579328840199e-02,-9.700268994816674262e-01,3.192654375599397554e+02
3.798139387544964052e+00,4.772815578354292043e+00,6.822081160070556649e+00,-2.020237478540441445e-01,-5.901412072848257612e-02,-9.776010120993379182e-01,3.210447783801692481e+02
3.462810372759573152e+00,4.887809723342243728e+00,6.788892406232159615e+00,-1.620264798998145850e-01,-8.876434828632563667e-02,-9.827859941434751168e-01,3.228241192003987408e+02
3.128088694604123976e+00,5.007131065879826259e+00,6.754194167476577526e+00,-1.215198593971383023e-01,-1.183657860815345714e-01,-9.855061970669692917e-01,3.246034600206282335e+02
2.794377813447398218e+00,5.133659558950143698e+00,6.715388653652378359e+00,-8.080949809411540341e-02,-1.475950991014428337e-01,-9.857410977224255744e-01,3.263828008408577261e+02
2.465896677149810312e+00,5.290819171653033059e+00,6.647016659745184519e+00,-4.020329242489091570e-02,-1.762389677811853073e-01,-9.835260654978194017e-01,3.281621416610872188e+02
2.347135213494617734e+00,5.364320674311906956e+00,6.603499231354062360e+00,-0.000000000000000000e+00,-2.041017182454783752e-01,-9.789496864544384724e-01,3.288450833014297245e+02
2.103931695394002155e+00,5.581379935921267688e+00,6.442758960665829981e+00,3.535955907233818973e-02,-2.615971054938832085e-01,-9.645292406036387600e-01,3.306244241216592172e+02
1.921707163715608679e+00,5.818192233539306812e+00,6.249800143821226506e+00,7.238356247886926220e-02,-3.207490290048425341e-01,-9.443943457451015044e-01,3.324037649418887099e+02
1.750525946286826340e+00,6.059240793642318934e+00,6.052505915990232133e+00,1.105680135879550802e-01,-3.806032836839752242e-01,-9.181044901427012350e-01,3.341831057621182026e+02
1.581345094660844275e+00,6.301198269948982578e+00,5.854628171703410544e+00,1.492787641642967233e-01,-4.400382203800470848e-01,-8.854841699174194058e-01,3.359624465823476953e+02
1.412527228186774453e+00,6.543348997298516601e+00,5.656671101838436577e+00,1.877909748336344942e-01,-4.978462235663475566e-01,-8.466898413538216372e-01,3.377417874025771880e+02
1.243778358622460667e+00,6.785531980291211518e+00,5.458697587268064311e+00,2.253491704177326138e-01,-5.528420173386201508e-01,-8.022365332350580580e-01,3.395211282228066807e+02
1.075059629662327376e+00,7.027678831254091207e+00,5.260679208428903131e+00,2.612378394074146293e-01,-6.039778909734442314e-01,-7.529711139725189240e-01,3.413004690430361734e+02
9.064432171820120399e-01,7.269618074198319846e+00,5.062338064495743417e+00,2.948480401237960624e-01,-6.504412291425979431e-01,-6.999934575884426691e-01,3.430798098632656661e+02
7.383780953147649484e-01,7.510585253325455568e+00,4.861599941383964563e+00,3.257260369552247847e-01,-6.917138810785002923e-01,-6.445420510507920975e-01,3.448591506834951588e+02
5.733458071511953191e-01,7.747038508521074007e+00,4.643048942785889643e+00,3.535955984509715488e-01,-7.275844432322003952e-01,-5.878699096931125911e-01,3.466384915037246515e+02
4.607983750494829001e-01,7.912653513584993803e+00,4.433853916162437514e+00,3.783535305516018687e-01,-7.581180222335275332e-01,-5.311362069035234779e-01,3.480550492027592782e+02
3.684016676612411612e-01,8.061330162527326593e+00,4.120963978418718199e+00,3.927631030449665328e-01,-7.893412259119758634e-01,-4.718872470858562762e-01,3.498343900229887709e+02
3.089068099004853574e-01,8.167854127744710979e+00,3.783565038888330179e+00,4.056211595501911793e-01,-8.175031682704035907e-01,-4.088521062597214595e-01,3.516137308432182635e+02
2.554315026188599957e-01,8.265210199728761253e+00,3.442852458125546189e+00,4.166292182523399501e-01,-8.419709267607728975e-01,-3.427901004814012942e-01,3.533930716634477562e+02
2.035131740160311120e-01,8.360297139981277326e+00,3.101577534073212572e+00,4.255591957293182181e-01,-8.622504471996538244e-01,-2.746334597863356319e-01,3.551724124836772489e+02
1.544803522615853519e-01,8.453548723891072925e+00,2.759361558839422024e+00,4.322745411036666985e-01,-8.780316295721132258e-01,-2.054243865380974421e-01,3.569517533039067416e+02
1.203476464516937683e-01,8.540140306920822155e+00,2.410587862217380639e+00,4.367404848835901299e-01,-8.892116026208884971e-01,-1.362368328611520962e-01,3.587310941241362343e+02
1.448578959054922510e-01,8.592899229860565313e+00,2.099712163687437627e+00,4.390216570551887521e-01,-8.958922234213534397e-01,-6.809631891416674521e-02,3.603143367163554558e+02
2.728062020552404210e-01,8.605745886745516771e+00,1.767542639774066560e+00,4.399917957520931844e-01,-8.978719428730695951e-01,1.527068669666111107e-02,3.620936775365849485e+02
4.613441121275376755e-01,8.588674546640673313e+00,1.449038415647976308e+00,4.372119447092307487e-01,-8.921992228795383451e-01,1.132530886851238761e-01,3.638730183568144412e+02
6.608961070984279429e-01,8.565085278382785106e+00,1.132381656322100749e+00,4.286163800860369744e-01,-8.746586314802695661e-01,2.264073256301658843e-01,3.656523591770439339e+02
8.627929931559871202e-01,8.539898694266636170e+00,8.160376922925087761e-01,4.117234066027943284e-01,-8.401858820591681098e-01,3.529469082508696620e-01,3.674316999972734266e+02
1.067072495477375149e+00,8.513496410121458524e+00,5.002128228693684120e-01,3.842348374661483934e-01,-7.840911657126223844e-01,4.874060253308153956e-01,3.692110408175029193e+02
1.282598335865462902e+00,8.482776931515807917e+00,1.880025728437159649e-01,3.451456533601986454e-01,-7.043235836409167394e-01,6.203247274563364888e-01,3.709903816377324119e+02
1.517117766304278970e+00,8.444982055665967380e+00,-1.033741159345268751e-01,2.958391303379323545e-01,-6.037059265624611371e-01,7.402826238635189515e-01,3.727697224579619046e+02
1.762921404283552373e+00,8.402742371215596862e+00,-3.602547499413138454e-01,2.401467708429722292e-01,-4.900569733190247024e-01,8.379580486844731002e-01,3.745490632781913973e+02
2.010747767338957104e+00,8.359022079448539699e+00,-5.980170928423710341e-01,1.829881777474537674e-01,-3.734159415315126962e-01,9.094371124023915565e-01,3.763284040984208900e+02
2.258514738565500668e+00,8.312681150286465481e+00,-8.331511491515533052e-01,1.285849114653605518e-01,-2.623975842190818253e-01,9.563542378948479694e-01,3.781077449186503827e+02
2.503894779883780952e+00,8.255114525646865431e+00,-1.067517812642275299e+00,7.949307910613004347e-02,-1.622180369522129850e-01,9.835477410179929159e-01,3.798870857388798754e+02
2.735583791570809442e+00,8.145730181197095021e+00,-1.298706788782895138e+00,3.666598213973909504e-02,-7.482266019275017610e-02,9.965225412781231196e-01,3.816664265591093681e+02
2.830080413649330051e+00,8.057351190809830754e+00,-1.397926259174846919e+00,-0.000000000000000000e+00,0.000000000000000000e+00,1.000000000000000000e+00,3.825257812889203706e+02
2.947336698165922364e+00,7.789834207104291863e+00,-1.534393873277273057e+00,-4.636159474102861169e-08,-1.156627263299005991e-07,9.999999999999922284e-01,3.843051221091498633e+02
3.000698605566663346e+00,7.457339205780282754e+00,-1.618685894779541945e+00,-9.272318948205505285e-08,-2.313254526597957984e-07,9.999999999999689138e-01,3.860844629293793560e+02
3.042469510734972626e+00,7.110852670733450509e+00,-1.695956998942951932e+00,-1.390847842230772059e-07,-3.469881789896802509e-07,9.999999999999302780e-01,3.878638037496088486e+02
3.082141189434477013e+00,6.761347486480303814e+00,-1.772282726310305589e+00,-1.854463789640928474e-07,-4.626509053195485569e-07,9.999999999998758771e-01,3.896431445698383413e+02
3.121457325997160304e+00,6.411167572028508843e+00,-1.848476736846907942e+00,-2.318079737050998333e-07,-5.783136316493952106e-07,9.999999999998059330e-01,3.914224853900678340e+02
3.160850652031808927e+00,6.060728742693140880e+00,-1.924619744716338676e+00,-2.781695684460960724e-07,-6.939763579792150240e-07,9.999999999997206679e-01,3.932018262102973267e+02
3.201040332342135031e+00,5.709706378509935121e+00,-2.000508786025923413e+00,-3.245311631870792884e-07,-8.096390843090023324e-07,9.999999999996196376e-01,3.949811670305268194e+02
3.245691922074610325e+00,5.356103733870789085e+00,-2.074527508854208779e+00,-3.708927579280475226e-07,-9.253018106387523714e-07,9.999999999995032862e-01,3.967605078507563121e+02
3.314983405000466288e+00,4.990521896512262856e+00,-2.134649364627103196e+00,-4.172543526689983396e-07,-1.040964536968458894e-06,9.999999999993711697e-01,3.985398486709858048e+02
3.384617650297794267e+00,4.770443012550727779e+00,-2.145206571831017595e+00,-4.636159474099297807e-07,-1.156627263298117030e-06,9.999999999992237321e-01,3.996077644135253877e+02
3.557788296363438629e+00,4.442100172885506737e+00,-2.094265202596923725e+00,-4.121030643644492017e-07,-1.028113122931826989e-06,9.999999999993867128e-01,4.013871052337548804e+02
3.767925859176532999e+00,4.149678733429969846e+00,-1.999928503289071235e+00,-3.605901813189448529e-07,-8.995989825654780790e-07,9.999999999995303757e-01,4.031664460539843731e+02
3.984762336852703424e+00,3.864990718398889413e+00,-1.899752762421223817e+00,-3.090772982734198046e-07,-7.710848421990771824e-07,9.999999999996549427e-01,4.049457868742138658e+02
4.202776379543219143e+00,3.581967573375887337e+00,-1.798793620022772544e+00,-2.575644152278770217e-07,-6.425707018326321343e-07,9.999999999997604139e-01,4.067251276944433585e+02
4.420793259627383343e+00,3.299300796331305907e+00,-1.697746400436958236e+00,-2.060515321823193891e-07,-5.140565614661500284e-07,9.999999999998467892e-01,4.085044685146728511e+02
4.637644708708900332e+00,3.016702454082434315e+00,-1.596816366256548658e+00,-1.545386491367499246e-07,-3.855424210996384352e-07,9.999999999999138467e-01,4.102838093349023438e+02
4.847840906419235374e+00,2.734092053646540066e+00,-1.496861236074772616e+00,-1.030257660911715266e-07,-2.570282807331046604e-07,9.999999999999618083e-01,4.120631501551318365e+02
5.021218359457717995e+00,2.451420541006435361e+00,-1.404165359497721699e+00,-5.151288304558729191e-08,-1.285141403665560624e-07,9.999999999999904521e-01,4.138424909753613292e+02
5.053939814251417140e+00,2.241338788843940222e+00,-1.362143859557447101e+00,-0.000000000000000000e+00,0.000000000000000000e+00,1.000000000000000000e+00,4.152597849002023054e+02
4.878815147896124138e+00,2.026092097871731834e+00,-1.380385021386322464e+00,0.000000000000000000e+00,1.977197878583855650e-02,9.998045153203162227e-01,4.170391257204317981e+02
4.567803905277731502e+00,1.846907587330536282e+00,-1.441121980609153086e+00,0.000000000000000000e+00,3.957506112840549622e-02,9.992166004108834487e-01,4.188184665406612908e+02
4.232188094518677168e+00,1.675773144878714982e+00,-1.507579018024068684e+00,0.000000000000000000e+00,5.938596055158471693e-02,9.982350964023283257e-01,4.205978073608907835e+02
3.891945583446426937e+00,1.507390536878240095e+00,-1.574819274396062729e+00,0.000000000000000000e+00,7.918128038697196114e-02,9.968602333508341795e-01,4.223771481811202761e+02
3.549894229178501170e+00,1.344266769064172973e+00,-1.642265561351762715e+00,0.000000000000000000e+00,9.893765151577713080e-02,9.950936343442976506e-01,4.241564890013497688e+02
3.202197706533175481e+00,1.203907263130116645e+00,-1.710487662610468806e+00,0.000000000000000000e+00,1.186318701107082901e-01,9.929383059354875973e-01,4.259358298215792615e+02
2.899617079381758611e+00,1.154404838135179912e+00,-1.767704999053215209e+00,-0.000000000000000000e+00,1.382410334876689184e-01,9.903986150334931349e-01,4.274973133546901636e+02
2.577155682392017866e+00,1.235128338442479823e+00,-1.824018895406321006e+00,9.691276332308377400e-03,1.153816378862233677e-01,9.932739585843088914e-01,4.292766541749196563e+02
2.272230911858267088e+00,1.403454944370283508e+00,-1.874471919038372070e+00,1.940084227217074922e-02,9.239241069920658966e-02,9.955336507443229843e-01,4.310559949951491490e+02
1.970789855289243331e+00,1.592107841146245262e+00,-1.924381258878832490e+00,2.911042554533118179e-02,6.931612439504609979e-02,9.971699243476109809e-01,4.328353358153786417e+02
1.671496782842660123e+00,1.791802868715008712e+00,-1.976038065262289090e+00,3.880168478619088618e-02,4.619620563754243958e-02,9.981785110101534242e-01,4.346146766356081343e+02
1.381012714648281570e+00,2.024734722395927555e+00,-2.041460298066563706e+00,4.845638226445700414e-02,2.307632786437026004e-02,9.985586923712281848e-01,4.363940174558376270e+02
1.238681978824661023e+00,2.180843886844550106e+00,-2.093046430223549859e+00,5.805655498841086337e-02,0.000000000000000000e+00,9.983132957257844220e-01,4.373956810170663516e+02
1.074320468084007496e+00,2.492096624769411850e+00,-2.211673443756721369e+00,1.006082103424875834e-01,-7.870245008199687942e-05,9.949261187734524947e-01,4.391750218372958443e+02
9.787465214260850921e-01,2.823088475844159895e+00,-2.344940065982392685e+00,1.433715315715546057e-01,-1.579948027886944129e-04,9.896689239197464794e-01,4.409543626575253370e+02
8.955381770364867489e-01,3.158124989416567274e+00,-2.480024304928596379e+00,1.861075234797897049e-01,-2.374383785239806593e-04,9.825293549442866148e-01,4.427337034777548297e+02
8.140660792761567066e-01,3.493169634823535041e+00,-2.614221450631780019e+00,2.285735970146406948e-01,-3.165845055656399875e-04,9.735265843940982267e-01,4.445130442979843224e+02
7.301169448955958652e-01,3.824236459326288973e+00,-2.739889299704767023e+00,2.705303564357688928e-01,-3.949870102046890543e-04,9.627113639258642053e-01,4.462923851182138151e+02
6.302442587837133736e-01,4.136028588198453093e+00,-2.801910650035202455e+00,3.117483009345297651e-01,-4.722147068857325005e-04,9.501646035701942772e-01,4.480717259384433078e+02
5.849810139111516483e-01,4.242859450923772258e+00,-2.784179373275207148e+00,3.520140075390099099e-01,-5.478630810373027321e-04,9.359945717483463268e-01,4.487521917509060358e+02
4.556509278779509731e-01,4.445355024200073224e+00,-2.590724414382104879e+00,3.665363630492094460e-01,-7.534260429989664276e-02,9.273481474289833049e-01,4.505315325711355285e+02
3.190857607388077888e-01,4.574583907156619667e+00,-2.289706520121328470e+00,3.793494885047584142e-01,-1.526343760792752413e-01,9.125769626777067156e-01,4.523108733913650212e+02
1.812054668486632880e-01,4.688020981725372849e+00,-1.974203639335299298e+00,3.900000559306960324e-01,-2.310149684661343683e-01,8.913652678440219246e-01,4.540902142115945139e+02
4.323526001106330063e-02,4.798094575884466195e+00,-1.656668592632419612e+00,3.981272110806426956e-01,-3.088927574563487544e-01,8.637592188730391918e-01,4.558695550318240066e+02
-9.389353303401730411e-02,4.907637424975339613e+00,-1.338243108934703107e+00,4.035100377120375836e-01,-3.846413197008021756e-01,8.301991957623515717e-01,4.576488958520534993e+02
-2.261195014181832663e-01,5.017959518680616071e+00,-1.015112851904786062e+00,4.060948018029252871e-01,-4.567639425657511465e-01,7.914882896925474753e-01,4.594282366722829920e+02
-3.311923713910266409e-01,5.132544425702848301e+00,-6.572763335656369721e-01,4.059947703102952943e-01,-5.240368557615919798e-01,7.487012890894438888e-01,4.612075774925124847e+02
-3.461529976022563737e-01,5.155322946089230030e+00,-5.816455997657092869e-01,4.034638481846201108e-01,-5.856005661191168166e-01,7.030568257040307190e-01,4.615510208744721581e+02
-3.825594743853913404e-01,5.268308409168247053e+00,-1.866679793587522063e-01,4.154461062182913111e-01,-6.029920055739161899e-01,6.810324324450388600e-01,4.633303616947016508e+02
-3.756636772170756644e-01,5.375197863135940501e+00,2.079708327685538816e-01,4.288068158336359459e-01,-6.223841745370168876e-01,6.547997052385519101e-01,4.651097025149311435e+02
-3.598810647456150424e-01,5.480762472466930824e+00,6.022717279568015059e-01,4.437012636037000468e-01,-6.440024609966997771e-01,6.232094502706727601e-01,4.668890433351606362e+02
-3.366655521660692485e-01,5.586061635632235678e+00,9.943545353321230351e-01,4.602532013044090542e-01,-6.680264823099260063e-01,5.847286632461838884e-01,4.686683841553901289e+02
-2.799113948724532008e-01,5.691352311037336520e+00,1.369992688502175149e+00,4.784962132442560079e-01,-6.945049838355539240e-01,5.373120148837957633e-01,4.704477249756196215e+02
-1.667435293395942431e-01,5.796629188836792679e+00,1.716643384279083584e+00,4.982603258417173109e-01,-7.231912603829863118e-01,4.782583492190946584e-01,4.722270657958491142e+02
-2.028361532449879032e-02,5.901848245012052629e+00,2.046850054558638110e+00,5.189647693874326340e-01,-7.532423638860792359e-01,4.041058145856851747e-01,4.740064066160786069e+02
1.322006169220369121e-01,6.007041464668328778e+00,2.374843941834841043e+00,5.392703117890937925e-01,-7.827144892803906684e-01,3.107178126426467513e-01,4.757857474363080996e+02
2.857750969670022623e-01,6.112226679134121987e+00,2.702540019798546744e+00,5.565853506831963671e-01,-8.078461005124364380e-01,1.939005551609219169e-01,4.775650882565375923e+02
4.395470111657857060e-01,6.217409712836936109e+00,3.030195967159076353e+00,5.666116635910470878e-01,-8.223986175256535747e-01,5.110515213243874144e-02,4.793444290767670850e+02
5.933547778508145853e-01,6.322592176120623186e+00,3.357846460371345376e+00,5.635589113242708281e-01,-8.179677534874274514e-01,-1.154560856851382933e-01,4.811237698969965777e+02
7.471691129106087237e-01,6.427774504702145286e+00,3.685496172481126376e+00,5.420043011351721729e-01,-7.866826904365310513e-01,-2.955700967934926648e-01,4.829031107172260704e+02
9.009847222613753814e-01,6.532956968997633673e+00,4.013145727493219184e+00,5.003116600372747858e-01,-7.261686336262719310e-01,-4.715584357935923565e-01,4.846824515374555631e+02
1.054800822070672162e+00,6.638140362344088885e+00,4.340795164075510471e+00,4.427962811600091864e-01,-6.426889400115166628e-01,-6.252058699162534872e-01,4.864617923576850558e+02
1.208618265763909294e+00,6.743328194683584798e+00,4.668444171339049653e+00,3.777411011617425318e-01,-5.482657335523011266e-01,-7.461342680144581463e-01,4.882411331779145485e+02
1.362442774573350723e+00,6.848536656873892348e+00,4.996090367786555575e+00,3.130792519862236611e-01,-4.544134202561522784e-01,-8.339603260748391644e-01,4.900204739981440412e+02
1.516306364790039884e+00,6.953840714283336943e+00,5.323716038650383453e+00,2.537742576350266455e-01,-3.683362204722935296e-01,-8.943864124918138314e-01,4.917998148183735339e+02
1.670386931047620926e+00,7.059587557700115923e+00,5.651189513538338538e+00,2.018196271307220180e-01,-2.929275781051381422e-01,-9.345920351095844403e-01,4.935791556386030265e+02
1.825671741287588246e+00,7.167384904436736370e+00,5.977532248722570607e+00,1.573453619322193742e-01,-2.283761815050209254e-01,-9.607740404484317320e-01,4.953584964588325192e+02
1.987635939810088903e+00,7.284675892810975384e+00,6.295472107392788175e+00,1.196240503006675282e-01,-1.736262415895010458e-01,-9.775193168532105847e-01,4.971378372790620119e+02
2.161909779407194865e+00,7.418979345836781647e+00,6.559344705514061680e+00,8.766727434067950187e-02,-1.272431364421284794e-01,-9.879896928804703382e-01,4.989171780992915046e+02
2.344806753253371401e+00,7.566636919157136987e+00,6.731214977581985615e+00,6.050471639358828702e-02,-8.781851541937621408e-02,-9.942972833331429339e-01,5.006965189195209973e+02
2.528674486035948021e+00,7.723603244192482897e+00,6.853263179085342216e+00,3.728754840517317648e-02,-5.412036184533606381e-02,-9.978379754086641462e-01,5.024758597397504900e+02
2.703893996708960579e+00,7.906631873451983594e+00,6.982270299710321204e+00,1.731025407609477346e-02,-2.512466639139451438e-02,-9.995344447504258545e-01,5.042552005599799827e+02
2.798314903207179682e+00,8.062580627910056918e+00,7.088934952420276936e+00,-0.000000000000000000e+00,-0.000000000000000000e+00,-1.000000000000000000e+00,5.054767443781296947e+02
2.862295413197510019e+00,8.335588217458047566e+00,7.269023847899606317e+00,0.000000000000000000e+00,3.654212383384145175e-03,-9.999933233436396618e-01,5.072560851983591874e+02
2.874875663233062095e+00,8.636368358067633366e+00,7.460123701084971692e+00,0.000000000000000000e+00,7.308571192687205419e-03,-9.999732920369029943e-01,5.090354260185886801e+02
2.877850697556565418e+00,8.944394743518014224e+00,7.651862409675353582e+00,0.000000000000000000e+00,1.096293002181265505e-02,-9.999399052769805119e-01,5.108147668388181728e+02
2.877352558548478267e+00,9.259716652672091541e+00,7.837424012188004774e+00,0.000000000000000000e+00,1.461714245292770192e-02,-9.998931638662756916e-01,5.125941076590476086e+02
2.866691090763022309e+00,9.603189006138936890e+00,7.975610138510109692e+00,0.000000000000000000e+00,1.827106208579380719e-02,-9.998330702123515712e-01,5.143734484792770445e+02
2.866046173426023191e+00,9.615605952836908443e+00,7.978864701001594284e+00,0.000000000000000000e+00,2.192454256709130619e-02,-9.997596283273413320e-01,5.144337250064503451e+02
2.838704587052284012e+00,9.999900888407008637e+00,8.028576051458518492e+00,0.000000000000000000e+00,7.929586950723132785e-03,-9.999685603311690985e-01,5.162130658266797809e+02
2.802008122613921515e+00,1.040446676956658933e+01,8.026030957870121441e+00,0.000000000000000000e+00,-6.075158624693500695e-03,-9.999815460535683709e-01,5.179924066469092168e+02
2.766228864804844978e+00,1.080650483471819534e+01,8.016149559126073854e+00,0.000000000000000000e+00,-2.008145964489685756e-02,-9.997983471573306247e-01,5.197717474671386526e+02
2.744902492556845264e+00,1.117596385772611178e+01,8.003017257605907986e+00,0.000000000000000000e+00,-3.408107400549529459e-02,-9.994190714583307544e-01,5.215510882873680885e+02
2.801817199802092428e+00,1.138954923883070691e+01,7.973743091169096076e+00,-0.000000000000000000e+00,-4.806577624515451230e-02,-9.988441726084960059e-01,5.233131214426992983e+02
2.991843605538553774e+00,1.135137800079510129e+01,7.915651170966225614e+00,-5.416285183182596025e-02,-3.506605939432863583e-02,-9.979162073841656433e-01,5.250924622629287342e+02
3.259986855823612473e+00,1.115813008475486257e+01,7.841397465347386131e+00,-1.096295690348214752e-01,-2.159806040062421315e-02,-9.937378333243483963e-01,5.268718030831581700e+02
3.542193342415143054e+00,1.093139894042813687e+01,7.764968921529874279e+00,-1.658853990156143043e-01,-7.775533814735342830e-03,-9.861143825476466063e-01,5.286511439033876059e+02
3.826929651781508568e+00,1.069743383584704510e+01,7.688247127135917403e+00,-2.223579008971104665e-01,6.269455457438444061e-03,-9.749449511828336412e-01,5.304304847236170417e+02
4.112123915184382028e+00,1.046188020250866479e+01,7.611481476106994215e+00,-2.784431939427576275e-01,2.039214662959621532e-02,-9.602361939141812464e-01,5.322098255438464776e+02
4.397419601162923186e+00,1.022585802226482699e+01,7.534677331136911960e+00,-3.335368510283833188e-01,3.444221405302316796e-02,-9.421076917726527444e-01,5.339891663640759134e+02
4.682838560107728476e+00,9.989151801742384151e+00,7.457625877367712874e+00,-3.870659303078055613e-01,4.827163794457094842e-02,-9.207876055666156523e-01,5.357685071843053493e+02
4.968853528837249733e+00,9.749594517186853437e+00,7.378741838535543884e+00,-4.385182749224796894e-01,6.174237503623956208e-02,-8.965989079203123824e-01,5.375478480045347851e+02
5.258114626915102896e+00,9.496883076854965466e+00,7.286239627896656579e+00,-4.874656647255767306e-01,7.473292261606094555e-02,-8.699380529617689595e-01,5.393271888247642210e+02
5.438666636236332508e+00,9.322013735939355783e+00,7.205947589188165026e+00,-5.335785543036569711e-01,8.714309002340615840e-02,-8.412490762243913789e-01,5.405048080766844123e+02
5.655364133766870971e+00,9.066657017116110495e+00,7.053790594279857551e+00,-5.644969119885860920e-01,1.222957609462808626e-01,-8.163252925212599598e-01,5.422841488969138481e+02
5.826659398158827052e+00,8.822130332978471046e+00,6.881656178322971051e+00,-5.939896487862589280e-01,1.573013661994305257e-01,-7.889439633627786108e-01,5.440634897171432840e+02
5.977892587264943991e+00,8.575305341596070718e+00,6.672560829525352233e+00,-6.217925142612454881e-01,1.918594569952667139e-01,-7.593181269864167637e-01,5.458428305373727198e+02
6.014575620360265162e+00,8.507066252814778906e+00,6.604146227821471982e+00,-6.476842007326943929e-01,2.256809567111615344e-01,-7.277178587194255144e-01,5.463314974816321410e+02
6.111543083220892569e+00,8.280467111890448706e+00,6.333479366527399179e+00,-6.704053547940751479e-01,2.496765601378596600e-01,-6.987261806896575278e-01,5.481108383018615768e+02
6.172506094599104820e+00,8.078216206039703806e+00,6.048577718128927749e+00,-6.924918160321344995e-01,2.739303924165552018e-01,-6.673958531778786396e-01,5.498901791220910127e+02
6.226965420470914836e+00,7.881231734317018400e+00,5.761760607619824448e+00,-7.137124849008180671e-01,2.982770907719783371e-01,-6.337548942748327807e-01,5.516695199423204485e+02
6.280250335552176821e+00,7.685385852296438003e+00,5.474685736593241536e+00,-7.338327670271238556e-01,3.225344342487320159e-01,-5.978804301540278088e-01,5.534488607625498844e+02
6.333323249346528350e+00,7.489786031609956929e+00,5.187576167013374651e+00,-7.526232290124016400e-01,3.465082351753545065e-01,-5.599020611737441921e-01,5.552282015827793202e+02
6.386357894748790009e+00,7.294239364776280432e+00,4.900461913828134008e+00,-7.698690853532128564e-01,3.699985903204763837e-01,-5.200025332421640556e-01,5.570075424030087561e+02
6.439385624682960163e+00,7.098704173060794709e+00,4.613347013827513443e+00,-7.853797849648463947e-01,3.928071316600378338e-01,-4.784152492193214923e-01,5.587868832232381919e+02
6.492412129709131285e+00,6.903171463369973893e+00,4.326231991845400415e+00,-7.989978451931057934e-01,4.147447425508969943e-01,-4.354184675724765974e-01,5.605662240434676278e+02
6.545438644425179753e+00,6.707639339105330833e+00,4.039116771607510259e+00,-8.106060793870741854e-01,4.356390905293355820e-01,-3.913264198383361592e-01,5.623455648636970636e+02
6.598466551672212965e+00,6.512107599432433780e+00,3.752000242834812926e+00,-8.201324980873957449e-01,4.553413041451870313e-01,-3.464779680156996333e-01,5.641249056839264995e+02
6.651502520530178764e+00,6.316577157361905392e+00,3.464874071835364777e+00,-8.275524194079828533e-01,4.737312011406050183e-01,-3.012237410926859593e-01,5.659042465041559353e+02
6.704583247814429825e+00,6.121052580553303812e+00,3.177676301458110419e+00,-8.328876564780740566e-01,4.907206477674962430e-01,-2.559128709954048286e-01,5.676835873243853712e+02
6.757911560543300666e+00,5.925554757096435310e+00,2.889946479475335117e+00,-8.362029948120409673e-01,5.062548608600246913e-01,-2.108804574230878914e-01,5.694629281446148070e+02
6.812608603256053996e+00,5.730178461599156670e+00,2.598262714193777079e+00,-8.376004648425986465e-01,5.203117093967175588e-01,-1.664367338063583446e-01,5.712422689648442429e+02
6.874871381830843120e+00,5.535351553817136505e+00,2.277194969663426161e+00,-8.372121058345060041e-01,5.328992850573566198e-01,-1.228586253769353293e-01,5.730216097850736787e+02
6.903009039565286109e+00,5.460200858915844613e+00,2.136953610108935919e+00,-8.351919860094663139e-01,5.440521584196161831e-01,-8.038404956532353707e-02,5.737309341961425844e+02
6.976262890709359787e+00,5.302285101469277784e+00,1.793081597023210350e+00,-8.768079643827809688e-01,4.805462334100302768e-01,1.682590711839147476e-02,5.755102750163720202e+02
7.050142411752323923e+00,5.174521096214389715e+00,1.463672083616790687e+00,-9.066092664915205157e-01,4.043125775145845480e-01,1.207931189067496941e-01,5.772896158366014561e+02
7.122128372784040984e+00,5.053752582818384020e+00,1.136157284765464182e+00,-9.207477097006440125e-01,3.177327599832355243e-01,2.264277993411018264e-01,5.790689566568308919e+02
7.182613379349153782e+00,4.936794696409479322e+00,8.085155990546729621e-01,-9.175257804064551603e-01,2.251622013327039262e-01,3.277932662220751081e-01,5.808482974770603278e+02
7.179363927752612895e+00,4.831443515425508650e+00,4.780191058643045166e-01,-8.980512081174960581e-01,1.319243595649461642e-01,4.196426943866467529e-01,5.826276382972897636e+02
7.145532363098197060e+00,4.798224273559992703e+00,3.587697243481466347e-01,-8.657294076430799290e-01,4.290388604163330316e-02,4.986700806189284796e-01,5.832962897472845043e+02
6.945623207377744635e+00,4.743302662296976280e+00,1.061716047561819531e-01,-8.457337991790526699e-01,1.465135639036920789e-01,5.130965956994885113e-01,5.850756305675139402e+02
6.654744424343737919e+00,4.720015052585009308e+00,-9.080120836519441074e-02,-8.137804863950566236e-01,2.553389685672127762e-01,5.220759821076400575e-01,5.868549713877433760e+02
6.347370173327309573e+00,4.703323511501548815e+00,-2.802966572727087491e-01,-7.692503445711398324e-01,3.652744141441566228e-01,5.242408890470351412e-01,5.886343122079728118e+02
6.036738734845381593e+00,4.686838091451350330e+00,-4.688428210496454196e-01,-7.130187171711204197e-01,4.715382983823888652e-01,5.188987783010198251e-01,5.904136530282022477e+02
5.723981294386679686e+00,4.664730105900695811e+00,-6.576840772270670099e-01,-6.474769109799116684e-01,5.696116419960297605e-01,5.062768284747963810e-01,5.921929938484316835e+02
5.402275627892227483e+00,4.615147559293598434e+00,-8.497074750577686686e-01,-5.760487903947271171e-01,6.561516061183785276e-01,4.874760105615906780e-01,5.939723346686611194e+02
5.335698808651337721e+00,4.599890023490003976e+00,-8.888768591657004725e-01,-5.024143593103287397e-01,7.294795710168736624e-01,4.641544646212399372e-01,5.943333069756550913e+02
5.029190135619427515e+00,4.498953460744498756e+00,-1.063035529408406843e+00,-4.617390577099667048e-01,6.909236340330563442e-01,5.562567523362454969e-01,5.961126477958845271e+02
4.746957295483135830e+00,4.370341588009763356e+00,-1.217731306044937067e+00,-4.112226572522771351e-01,6.396792123758635595e-01,6.493892757172472496e-01,5.978919886161139630e+02
4.469073259296335365e+00,4.235753553315115383e+00,-1.369809663551535994e+00,-3.511722030860638943e-01,5.753742615336715494e-01,7.386626719580882128e-01,5.996713294363433988e+02
4.191801999608417262e+00,4.099890024377729425e+00,-1.521547369714918219e+00,-2.833161039733542164e-01,4.994198563848789019e-01,8.187257124812109543e-01,6.014506702565728347e+02
3.913694291126150748e+00,3.963823911606032535e+00,-1.673325282429715788e+00,-2.107049382858517950e-01,4.150833832570633986e-01,8.850475772103018057e-01,6.032300110768022705e+02
3.630204051336225035e+00,3.828061466481464503e+00,-1.825748256161065397e+00,-1.370768492089711188e-01,3.268442441939857224e-01,9.350843691604535657e-01,6.050093518970317064e+02
3.316835279890782306e+00,3.694028508486932871e+00,-1.983011850875232351e+00,-6.596597923136883479e-02,2.392965996415011565e-01,9.687030644031543458e-01,6.067886927172611422e+02
3.132310347622430768e+00,3.628176081855758905e+00,-2.064083874691851950e+00,-3.620194707002726223e-06,1.561655074799237763e-01,9.877309017442108541e-01,6.077312531025161206e+02
2.776826618171168715e+00,3.532482991629060987e+00,-2.188223724690443905e+00,4.214438309467490040e-02,1.631783167999258932e-01,9.856960423476968103e-01,6.095105939227455565e+02
2.424363886412307600e+00,3.461536722988001635e+00,-2.289193086101368735e+00,8.469247932226968423e-02,1.699670606690842911e-01,9.818036373092934310e-01,6.112899347429749923e+02
2.072494414354896453e+00,3.395891144230855474e+00,-2.387028591360133234e+00,1.274047446409719009e-01,1.764858232190104348e-01,9.760229429914426547e-01,6.130692755632044282e+02
1.720928354280388373e+00,3.331221041904431246e+00,-2.484323633432565792e+00,1.700370128086105825e-01,1.826922430057044133e-01,9.683547689874145714e-01,6.148486163834338640e+02
1.370485511105546284e+00,3.265981953205706390e+00,-2.580663521554848128e+00,2.123436888453894555e-01,1.885488380511466389e-01,9.588323594232178726e-01,6.166279572036632999e+02
1.026137620746544910e+00,3.196996120436696565e+00,-2.670317250119884633e+00,2.540847603584865388e-01,1.940241244551917932e-01,9.475207510566545643e-01,6.184072980238927357e+02
7.154083148390392166e-01,3.110341198768271642e+00,-2.710337964799555799e+00,2.950325453232904294e-01,1.990934518495734440e-01,9.345146305064904180e-01,6.201866388441221716e+02
5.978559526474521713e-01,3.054814754983897984e+00,-2.675799994187633146e+00,3.349777391928526749e-01,2.037395048402665110e-01,9.199348500914007465e-01,6.210814245471706272e+02
5.079301878445953156e-01,2.922634054252898572e+00,-2.454627381120549678e+00,3.437189344948838321e-01,2.242309843611486608e-01,9.119088549422755818e-01,6.228607653674000630e+02
5.305458421462093677e-01,2.775020987237752035e+00,-2.134140478225331261e+00,3.533648855923617882e-01,2.472358800201456264e-01,9.022237401337659390e-01,6.246401061876294989e+02
5.735186272889023495e-01,2.624033985086359433e+00,-1.800289706117705002e+00,3.640278914525285070e-01,2.731846806840822484e-01,8.904233961909144845e-01,6.264194470078589347e+02
6.201734625116243071e-01,2.472311057667626599e+00,-1.464640643153655386e+00,3.758243414136457905e-01,3.025888448148356114e-01,8.758972858701083997e-01,6.281987878280883706e+02
6.674942300951896001e-01,2.320427926185994139e+00,-1.128749564614646372e+00,3.888637158482463052e-01,3.360479920731203052e-01,8.578209355805664904e-01,6.299781286483178064e+02
7.149354345568169622e-01,2.168510005985823330e+00,-7.928258843837592273e-01,4.032264719034400202e-01,3.742467197341654561e-01,8.350735327649423390e-01,6.317574694685472423e+02
7.623984284912740383e-01,2.016584646372649559e+00,-4.568977803985341257e-01,4.189221245250689396e-01,4.179269498871771016e-01,8.061273585119187457e-01,6.335368102887766781e+02
8.098653729353939568e-01,1.864658135116579185e+00,-1.209690416945178454e-01,4.358133948084449982e-01,4.678086410785712301e-01,7.689094616648690650e-01,6.353161511090061140e+02
8.573330290812642973e-01,1.712733436797063691e+00,2.149598462737237758e-01,4.534859794213109141e-01,5.244104566820992908e-01,7.206553540984527162e-01,6.370954919292355498e+02
9.048007530158456158e-01,1.560818595549083421e+00,5.508890032228864753e-01,4.710420545463673281e-01,5.876953903772982324e-01,6.578248330505716002e-01,6.388748327494649857e+02
9.522681921774998060e-01,1.408949649926242165e+00,8.868198259340746015e-01,4.868177605374421346e-01,6.564585384500156717e-01,5.762557204239963093e-01,6.406541735696944215e+02
9.997343822200009944e-01,1.257293378518565152e+00,1.222762777438731518e+00,4.981115618404353684e-01,7.274641734405267179e-01,4.718906105458904876e-01,6.424335143899238574e+02
