2.509269016056028256e+00,5.473124967754127823e+00,-1.991707892528263413e+00,0.000000000000000000e+00,0.000000000000000000e+00,1.000000000000000000e+00,2.760504044014192573e+02
2.544629322618290335e+00,4.873242808184455654e+00,-2.034013249297975001e+00,0.000000000000000000e+00,0.000000000000000000e+00,1.000000000000000000e+00,2.784105405065911896e+02
2.561876667960099940e+00,4.769853098656375856e+00,-2.039729684233948959e+00,-0.000000000000000000e+00,0.000000000000000000e+00,1.000000000000000000e+00,2.787990119322150235e+02
2.735061666976490002e+00,4.168173763893618933e+00,-2.070245510688229817e+00,-1.210035214128970194e-06,5.219767956610256443e-02,9.986367719278368416e-01,2.811591480373869558e+02
2.976885271701980251e+00,3.734279898676811538e+00,-2.098896998506257550e+00,-2.420070413007999015e-06,1.043953584743634866e-01,9.945358762373293082e-01,2.835192841425588881e+02
3.132004016613640474e+00,3.630322021355319784e+00,-2.123467296499038426e+00,-3.620194707002726223e-06,1.561655074799237763e-01,9.877309017442108541e-01,2.851970506911153507e+02
3.272206467889728021e+00,3.880314080283901124e+00,-2.172888995451688121e+00,-2.575032239579916097e-06,1.043949760896917267e-01,9.945359163753725307e-01,2.875571867962872830e+02
3.350737730271412751e+00,4.457190880164130675e+00,-2.247454298930729344e+00,-1.519958722719513020e-06,5.219690847686998814e-02,9.986368122311268802e-01,2.899173229014592152e+02
3.384526021184118161e+00,4.769570194420568399e+00,-2.292189690571437399e+00,-4.636159474099297807e-07,-1.156627263298117030e-06,9.999999999992237321e-01,2.910598899807637849e+02
3.461862467554593703e+00,5.342543808578574804e+00,-2.402800324132034593e+00,-1.473227552126755123e-02,-1.012819983452243203e-06,9.998914741395386052e-01,2.934200260859357172e+02
3.546138280840967827e+00,5.821187020627509590e+00,-2.537153258912657083e+00,-2.948014201922436600e-02,-8.686044581594223018e-07,9.995653661595983452e-01,2.957801621911076495e+02
3.630788089654074735e+00,6.253250509183597927e+00,-2.685121636715740223e+00,-4.423444909286077670e-02,-7.240738780824394767e-07,9.990211777099256008e-01,2.981402982962795818e+02
3.710129051450584914e+00,6.663300643921989064e+00,-2.836579874138953627e+00,-5.898554491251971343e-02,-5.793222959578598919e-07,9.982588369210849688e-01,3.005004344014515141e+02
3.774120825548461955e+00,7.064989272373085605e+00,-2.981402714411716115e+00,-7.372377131854425392e-02,-4.344443214263226628e-07,9.972787000344398578e-01,3.028605705066234464e+02
3.799455225496395805e+00,7.467938967000097072e+00,-3.109464279262037500e+00,-8.843949540711860957e-02,-2.895348121627123404e-07,9.960815507035808425e-01,3.052207066117953786e+02
3.729114003017523160e+00,7.882743132323941637e+00,-3.210637120725629234e+00,-1.031231409785717534e-01,-1.446885636556318329e-07,9.946685969682025341e-01,3.075808427169673109e+02
3.642245148113801179e+00,8.099158167002716624e+00,-3.251405251186568535e+00,-1.177652196089313680e-01,0.000000000000000000e+00,9.930414659270077049e-01,3.087826862489645805e+02
3.353024683326193411e+00,8.497857324925190525e+00,-3.305012799268995494e+00,-7.875138647958604410e-02,-3.907659485333632443e-02,9.961281237181345283e-01,3.111428223541365128e+02
2.956998201529287496e+00,8.785825148287798925e+00,-3.315542354344906961e+00,-3.937569398339047649e-02,-7.815319118257080255e-02,9.961634571852687747e-01,3.135029584593084451e+02
2.762095020892653352e+00,8.866748057778075065e+00,-3.307778977630304595e+00,0.000000000000000000e+00,-1.168706797253571267e-01,9.931471412739065752e-01,3.146291742647071032e+02
2.403112739340516502e+00,8.871835684157620250e+00,-3.264828207830024365e+00,3.423774963724377646e-02,-1.587872772413529143e-01,9.867189960095300583e-01,3.169893103698790355e+02
2.101801238650665482e+00,8.682394022015284207e+00,-3.179699251205375887e+00,6.953505534170079105e-02,-2.016359447363465507e-01,9.769891615923421702e-01,3.193494464750509678e+02
1.823274327862639543e+00,8.395504670088827837e+00,-3.054620709903827613e+00,1.055910591413229266e-01,-2.450174445216873331e-01,9.637515136742849098e-01,3.217095825802229001e+02
1.553724447439102763e+00,8.059844314946779775e+00,-2.891817445027138334e+00,1.420549273320750872e-01,-2.884807613798758830e-01,9.468892479769563941e-01,3.240697186853948324e+02
1.287769263432936295e+00,7.699841714331196130e+00,-2.693510784973753402e+00,1.785395638060306434e-01,-3.315422852870322790e-01,9.263926474355268503e-01,3.264298547905667647e+02
1.023457544076826098e+00,7.327813611308795494e+00,-2.461918733452659325e+00,2.146401062755325662e-01,-3.737100705719492710e-01,9.023693301144142254e-01,3.287899908957386970e+02
7.604209104336009384e-01,6.950087645557641025e+00,-2.199256177188052774e+00,2.499553899180059213e-01,-4.145106410001868080e-01,8.750447026001311190e-01,3.311501270009106292e+02
4.994833370885711776e-01,6.570147108047586393e+00,-1.907735093334155252e+00,2.841098559898576625e-01,-4.535151031062438776e-01,8.447518221252648951e-01,3.335102631060825615e+02
2.433525600120099996e-01,6.190355504196204173e+00,-1.589564756619478381e+00,3.167731796017800305e-01,-4.903612883553006285e-01,8.119116698062099902e-01,3.358703992112544938e+02
-1.016197914729450322e-03,5.813109510603550412e+00,-1.246951946239719389e+00,3.476752798182162207e-01,-5.247693219528862807e-01,7.770064726502816654e-01,3.382305353164264261e+02
-2.163180169451386914e-01,5.441972461860375532e+00,-8.821011525185171731e-01,3.766152500930364244e-01,-5.565492269998504327e-01,7.405497358876232949e-01,3.405906714215983584e+02
-3.460107270976426896e-01,5.155430655167648091e+00,-5.762976258917554828e-01,4.034638481846201108e-01,-5.856005661191168166e-01,7.030568257040307190e-01,3.424821702754498460e+02
-4.270380983964007227e-01,4.824322518080204070e+00,-1.801431948819434969e-01,4.220863445197109431e-01,-5.901076097149475785e-01,6.881977381003943073e-01,3.448423063806217783e+02
-4.405316477996081836e-01,4.518544251835075798e+00,2.314850694627403060e-01,4.444186896563530054e-01,-5.951254056164165807e-01,6.695653663937717326e-01,3.472024424857937106e+02
-4.265688325061512409e-01,4.225295696145868085e+00,6.557973418891317463e-01,4.715980605633851019e-01,-6.006322093195121115e-01,6.456285452183906370e-01,3.495625785909656429e+02
-4.013210767649470490e-01,3.938266478951584659e+00,1.090004984850995395e+00,5.052083392205729551e-01,-6.064645865783505618e-01,6.139749499843951686e-01,3.519227146961375752e+02
-3.711461366512426308e-01,3.654344614053432583e+00,1.531320287354076104e+00,5.474407815902689878e-01,-6.121019357295084395e-01,5.706485879488565338e-01,3.542828508013095075e+02
-3.381210039339015427e-01,3.372004115883114661e+00,1.976956203888403651e+00,6.011760002633035338e-01,-6.161228725486864732e-01,5.089007984173059551e-01,3.566429869064814397e+02
-3.018431667974859067e-01,3.090514995703808054e+00,2.424126093429437745e+00,6.694819247906577120e-01,-6.148047235228715213e-01,4.169041908071468017e-01,3.590031230116533720e+02
-2.590687630882542725e-01,2.809556462339928729e+00,2.870043458475959319e+00,7.525583753876947668e-01,-5.986298429486701655e-01,2.744051799166403183e-01,3.613632591168253043e+02
-2.008660762351090479e-01,2.529020604352469892e+00,3.311921684097525631e+00,8.364176856236440472e-01,-5.454991832308747624e-01,5.325501169312991251e-02,3.637233952219972366e+02
-1.047888319556442155e-01,2.248876863646366964e+00,3.746973776971121328e+00,8.709171795928791759e-01,-4.206199825717565899e-01,-2.541300780138387450e-01,3.660835313271691689e+02
4.515695658857516587e-02,1.969077412827343609e+00,4.172412125366812496e+00,7.920510860402661946e-01,-2.218054404413080938e-01,-5.687331744263492972e-01,3.684436674323411012e+02
2.328945100270675417e-01,1.689757412817596505e+00,4.585448259077189448e+00,6.280596554592151604e-01,-2.024672984475038573e-02,-7.779017541534700708e-01,3.708038035375130335e+02
4.358285664817839189e-01,1.411515946473756555e+00,4.983292567298822640e+00,4.640668209719195914e-01,1.286323001543696887e-01,-8.764107011156427873e-01,3.731639396426849657e+02
6.446908875510639625e-01,1.135625686103519882e+00,5.363154016404926949e+00,3.357656773867128130e-01,2.264649836816337580e-01,-9.143166962574398315e-01,3.755240757478568980e+02
8.554355812083176414e-01,8.645888566711492640e-01,5.722239888569260025e+00,2.415012058254180083e-01,2.905861088687883287e-01,-9.258708770219342687e-01,3.778842118530288303e+02
1.065722992368376643e+00,6.033560021857817812e-01,6.057755520234427316e+00,1.720837662632980491e-01,3.341405848161560499e-01,-9.266807686400725386e-01,3.802443479582007626e+02
1.272926570636776500e+00,3.617895408630970033e-01,6.366904040399368192e+00,1.198470503337678572e-01,3.649978542466173481e-01,-9.232622871761092531e-01,3.826044840633726949e+02
1.471945156805097410e+00,1.595954091471276926e-01,6.646886108701575147e+00,7.953604388282707605e-02,3.877221952840521069e-01,-9.183384544968070662e-01,3.849646201685446272e+02
1.650961010053054290e+00,3.619252658474998025e-02,6.894899653269678019e+00,4.767858586619099642e-02,4.050220582387579760e-01,-9.130629139275345807e-01,3.873247562737165595e+02
1.781541284735814523e+00,7.047629617788156442e-02,7.108139608322056269e+00,2.196437538318200475e-02,4.185652488498964319e-01,-9.079210861463956617e-01,3.896848923788884917e+02
1.800096075937445805e+00,9.920852316827830086e-02,7.146494580077062508e+00,8.242578295552722457e-04,4.294190013449196153e-01,-9.031050004750070803e-01,3.901505209947206367e+02
1.848946051388564715e+00,3.660629809514379107e-01,7.322120277732611981e+00,7.775613065119091338e-04,3.489882203002052097e-01,-9.371267883750362682e-01,3.925106570998925690e+02
1.839972773065064793e+00,8.044992753585913370e-01,7.463710168520449884e+00,7.235929389150441357e-04,2.638604579196146549e-01,-9.645605917513476735e-01,3.948707932050645013e+02
1.814262334055256831e+00,1.325199417439652638e+00,7.575364922234920861e+00,6.633287333646924622e-04,1.759069719812340338e-01,-9.844065710890926857e-01,3.972309293102364336e+02
1.797180355304011989e+00,1.879600253034203527e+00,7.661182405116976568e+00,5.982207924753716764e-04,8.724705512603914137e-02,-9.961865254578168294e-01,3.995910654154083659e+02
1.801834756246226243e+00,2.273418865013654422e+00,7.710133395352866792e+00,5.300273656876602468e-04,0.000000000000000000e+00,-9.999998595354860909e-01,4.012708019283456338e+02
1.843910571727396031e+00,2.791716128379583051e+00,7.764366992501675391e+00,3.975205368476291247e-04,0.000000000000000000e+00,-9.999999209887082685e-01,4.036309380335175661e+02
1.916964423625233227e+00,3.270802562408243297e+00,7.799821671415082314e+00,2.650136949665482630e-04,0.000000000000000000e+00,-9.999999648838701072e-01,4.059910741386894983e+02
2.002432416354952949e+00,3.730235472796313623e+00,7.816546466909351842e+00,1.325068470241080063e-04,0.000000000000000000e+00,-9.999999912209676101e-01,4.083512102438614306e+02
2.092851562805406740e+00,4.179878681892713388e+00,7.814588659481910504e+00,-0.000000000000000000e+00,-0.000000000000000000e+00,-1.000000000000000000e+00,4.107113463490333629e+02
2.185210439596694254e+00,4.624756959094660225e+00,7.793993779737660610e+00,0.000000000000000000e+00,0.000000000000000000e+00,-1.000000000000000000e+00,4.130714824542052952e+02
2.278255844836612365e+00,5.067536223110431948e+00,7.754805612652607039e+00,0.000000000000000000e+00,0.000000000000000000e+00,-1.000000000000000000e+00,4.154316185593772275e+02
2.371368876245467661e+00,5.509843265075922147e+00,7.697066201675141883e+00,0.000000000000000000e+00,0.000000000000000000e+00,-1.000000000000000000e+00,4.177917546645491598e+02
2.464013008177042163e+00,5.953074229318048083e+00,7.620815852665324464e+00,0.000000000000000000e+00,0.000000000000000000e+00,-1.000000000000000000e+00,4.201518907697210921e+02
2.555265891808089052e+00,6.399092374796969018e+00,7.526093137672541289e+00,0.000000000000000000e+00,0.000000000000000000e+00,-1.000000000000000000e+00,4.225120268748930243e+02
2.643025700131822919e+00,6.851164227377399385e+00,7.412934898552043350e+00,0.000000000000000000e+00,0.000000000000000000e+00,-1.000000000000000000e+00,4.248721629800649566e+02
2.722204036353817802e+00,7.315606821509887503e+00,7.281376250420744434e+00,0.000000000000000000e+00,0.000000000000000000e+00,-1.000000000000000000e+00,4.272322990852368889e+02
2.780339669109774814e+00,7.804983044223850364e+00,7.131450584952368388e+00,0.000000000000000000e+00,0.000000000000000000e+00,-1.000000000000000000e+00,4.295924351904088212e+02
2.798350982390204411e+00,8.062512063694651232e+00,7.049813920867875616e+00,-0.000000000000000000e+00,-0.000000000000000000e+00,-1.000000000000000000e+00,4.307858267497712177e+02
2.802097733340606744e+00,8.575443977437171128e+00,6.877928389995100034e+00,0.000000000000000000e+00,-8.323093136737375053e-02,-9.965302865762382112e-01,4.331459628549431500e+02
2.772489466093714938e+00,9.085672429654353621e+00,6.692015726017699784e+00,0.000000000000000000e+00,-1.690529996888914532e-01,-9.856069618748579675e-01,4.355060989601150823e+02
2.731951936379451329e+00,9.584587309001522115e+00,6.496362947952327715e+00,0.000000000000000000e+00,-2.555921730830412186e-01,-9.667846921929871273e-01,4.378662350652870145e+02
2.693159832719179470e+00,1.005778538526984889e+01,6.295256162360415075e+00,0.000000000000000000e+00,-3.407895620736188791e-01,-9.401396036662167388e-01,4.402263711704589468e+02
2.669996455171534055e+00,1.047792155648132884e+01,6.092980964707573222e+00,0.000000000000000000e+00,-4.226324917621406829e-01,-9.063011513326705293e-01,4.425865072756308791e+02
2.689412173304789100e+00,1.079100692761169888e+01,5.893822840676351760e+00,0.000000000000000000e+00,-4.993855739596659293e-01,-8.663798523286277975e-01,4.449466433808028114e+02
2.751576666121867465e+00,1.091564885884377212e+01,5.750260174764872723e+00,-0.000000000000000000e+00,-5.697624465780825043e-01,-8.218094392676185134e-01,4.466925219112071659e+02
2.921118615051497613e+00,1.088952437204535073e+01,5.563206637159321843e+00,-5.647801309651325624e-02,-5.411435723855623214e-01,-8.390315060249298185e-01,4.490526580163790982e+02
3.162368960400833373e+00,1.068087356155194101e+01,5.383831317744130374e+00,-1.223665513428686957e-01,-5.046327987054142206e-01,-8.546181402142093431e-01,4.514127941215510305e+02
3.432101338339476282e+00,1.038073299948411332e+01,5.209235535223903923e+00,-1.987212043673011186e-01,-4.580050021998264276e-01,-8.664532883512798822e-01,4.537729302267229627e+02
3.713089585087734790e+00,1.003475655744491668e+01,5.036521055537194869e+00,-2.858557459465666528e-01,-3.988174857500967341e-01,-8.713386859134071294e-01,4.561330663318948950e+02
3.998494110311441752e+00,9.665835168855171133e+00,4.862789820477908087e+00,-3.825384260185724639e-01,-3.249341579277530978e-01,-8.649174212784797033e-01,4.584932024370668273e+02
4.285607991052317267e+00,9.285454266611759877e+00,4.685143676333067830e+00,-4.850596617917442566e-01,-2.355349145053241278e-01,-8.421641339735671528e-01,4.608533385422387596e+02
4.573354354593666571e+00,8.899398807111003507e+00,4.500684102511644191e+00,-5.867916934134260742e-01,-1.324365817158571490e-01,-7.988341882796597959e-01,4.632134746474106919e+02
4.861277588774389535e+00,8.510629533822354986e+00,4.306511940139157169e+00,-6.791840545145831909e-01,-2.090778515051578898e-02,-7.336701470096977928e-01,4.655736107525826242e+02
5.149112174690866794e+00,8.120756500105704490e+00,4.099727120592817187e+00,-7.544464609795762389e-01,9.114833417051618203e-02,-6.500019374535221939e-01,4.679337468577545565e+02
5.436535513335524428e+00,7.730841682623052158e+00,3.877428393952023988e+00,-8.084327657051927352e-01,1.957164554001569468e-01,-5.550959668560484506e-01,4.702938829629264887e+02
5.722880987039264511e+00,7.341930456400597826e+00,3.636713057338995192e+00,-8.415845317199183162e-01,2.872511454609789072e-01,-4.574081934127561255e-01,4.726540190680984210e+02
6.006557772331131417e+00,6.955578475246230852e+00,3.374676683124258947e+00,-8.575672312950560761e-01,3.636187148028142690e-01,-3.638129657586181565e-01,4.750141551732703533e+02
6.283671119270805683e+00,6.574641445242487947e+00,3.088412846971627879e+00,-8.611252118672225730e-01,4.253790247032328553e-01,-2.784170519726790749e-01,4.773742912784422856e+02
6.544641565354760715e+00,6.204733687502327122e+00,2.775012855697444714e+00,-8.565658522128524188e-01,4.744976518498023044e-01,-2.028470340229151236e-01,4.797344273836142179e+02
6.765877479908641412e+00,5.857112655156778480e+00,2.431565474918907732e+00,-8.471701893810824613e-01,5.133259500497675543e-01,-1.371099530651382903e-01,4.820945634887861502e+02
6.889239298646436360e+00,5.554501336674796619e+00,2.055156656466093246e+00,-8.351919860094663139e-01,5.440521584196161831e-01,-8.038404956532353707e-02,4.844546995939580825e+02
6.902404780806557838e+00,5.460453610005915337e+00,1.914864154016853393e+00,-8.183429553233498854e-01,5.741207191379980035e-01,-2.646143097252685525e-02,4.852910356339663736e+02
6.829134705121924220e+00,5.250069788103061796e+00,1.503549122851273401e+00,-7.973233275549751475e-01,6.028267162193863271e-01,2.958819948583172113e-02,4.876511717391383058e+02
6.624755476928855025e+00,5.111817333225395110e+00,1.076641787797804728e+00,-7.720309877965728651e-01,6.295863959435745727e-01,8.711557796759730743e-02,4.900113078443102381e+02
6.368985814096166820e+00,5.009117232202745740e+00,6.554514251665219948e-01,-7.425355423193883420e-01,6.538457503940934279e-01,1.453502772066040116e-01,4.923714439494821704e+02
6.096095714807701071e+00,4.922640898467086856e+00,2.612878465366891279e-01,-7.090939453411074789e-01,6.751266010679489726e-01,2.034449537615055370e-01,4.947315800546541027e+02
5.825120857521196349e+00,4.840926217316274816e+00,-8.453660577891666805e-02,-6.721450226760493640e-01,6.930681364546305012e-01,2.605333505006964256e-01,4.970917161598260350e+02
5.576615786499441008e+00,4.754717987380144173e+00,-3.607050630347515829e-01,-6.322817006640326642e-01,7.074562636987939968e-01,3.157934229187503994e-01,4.994518522649979673e+02
5.390658127422592649e+00,4.652261417649364184e+00,-5.458941339318938990e-01,-5.902048461757207765e-01,7.182354522275876674e-01,3.685051895348641637e-01,5.018119883701698996e+02
5.336097652286427184e+00,4.599906727591979383e+00,-6.006046096607560170e-01,-5.466667919675883835e-01,7.255017160146669530e-01,4.180941025889253759e-01,5.028640328864992171e+02
5.304372598969442798e+00,4.467594164684236979e+00,-6.533248937192362993e-01,-5.024143593103287397e-01,7.294795710168736624e-01,4.641544646212399372e-01,5.052241689916711493e+02
5.373972282396140443e+00,4.317590524500775295e+00,-5.943253855932894014e-01,-5.139143426750452104e-01,7.474535372436011960e-01,4.209575489938440773e-01,5.075843050968430816e+02
5.484407678697381883e+00,4.158499820544811598e+00,-4.337018128254767624e-01,-5.257862821995433755e-01,7.661716651667789257e-01,3.694993436345283544e-01,5.099444412020150139e+02
5.611063291013975274e+00,3.994755032768060765e+00,-1.815403869012097160e-01,-5.375725790769232404e-01,7.850048495288238781e-01,3.078686545278905284e-01,5.123045773071869462e+02
5.743584473975960059e+00,3.828616223624317971e+00,1.520812522739860562e-01,-5.484608610857986122e-01,8.028081132431965639e-01,2.338585409343079125e-01,5.146647134123588785e+02
5.876781089832381788e+00,3.661215334510257158e+00,5.570930926942980754e-01,-5.571066769092226645e-01,8.176545448405215799e-01,1.451660974360150513e-01,5.170248495175308108e+02
6.006067610043094085e+00,3.493096314430051308e+00,1.023431807283226469e+00,-5.614478620125710195e-01,8.265496926242114073e-01,3.989866995696202123e-02,5.193849856227027431e+02
6.123439195175861549e+00,3.324498446265142793e+00,1.541039811545365845e+00,-5.586345244597602511e-01,8.253053084968403619e-01,-8.245371943431459294e-02,5.217451217278746753e+02
6.210455883481785122e+00,3.155534663459079514e+00,2.099864321750497531e+00,-5.453269198833005094e-01,8.089448713922706702e-01,-2.196058867579261664e-01,5.241052578330466076e+02
6.251874174148748686e+00,2.986376125151961602e+00,2.689856407353378387e+00,-5.186383041859238263e-01,7.730634455995867294e-01,-3.652221495320948086e-01,5.264653939382185399e+02
6.252080672161182129e+00,2.817255570714892521e+00,3.300970043775429907e+00,-4.776139473853693862e-01,7.160125532894298095e-01,-5.091276272163169914e-01,5.288255300433904722e+02
6.209149471600558634e+00,2.648429318622062656e+00,3.923161177878325301e+00,-4.243404231852659914e-01,6.405983830409601731e-01,-6.399757158644822086e-01,5.311856661485624045e+02
6.116518150166304402e+00,2.480404038701811587e+00,4.546386808216936970e+00,-3.635512679640992006e-01,5.535953042819254932e-01,-7.492414261362608796e-01,5.335458022537343368e+02
5.990391424010843124e+00,2.314088153298312189e+00,5.160604059180047720e+00,-3.008031922078194254e-01,4.631164325698314266e-01,-8.336909555952842776e-01,5.359059383589062691e+02
5.850797679917795868e+00,2.151064449953416169e+00,5.755769225947322099e+00,-2.406204999637276132e-01,3.758670679094496259e-01,-8.948886647278302409e-01,5.382660744640782013e+02
5.706003767940457827e+00,1.994437638372730026e+00,6.321836819367367077e+00,-1.857022154364945110e-01,2.959236788824144426e-01,-9.369865865948537875e-01,5.406262105692501336e+02
5.559792800876523167e+00,1.850452255670564705e+00,6.848758625267028499e+00,-1.371152075729983599e-01,2.249698098286928016e-01,-9.646698940662838950e-01,5.429863466744220659e+02
5.414850558283095694e+00,1.731631515269461241e+00,7.326482763507767615e+00,-9.486574396077677995e-02,1.631118886841203819e-01,-9.820361512656585745e-01,5.453464827795939982e+02
5.275262609425965366e+00,1.663023260956151050e+00,7.744952746701173396e+00,-5.842069484642829769e-02,1.096392926191264855e-01,-9.922531168646627764e-01,5.477066188847659305e+02
5.150381297676219106e+00,1.694666792901176500e+00,8.094106538496015801e+00,-2.704812188038343765e-02,6.352762657083291242e-02,-9.976134721248608450e-01,5.500667549899378628e+02
5.084443078382667736e+00,1.787789686837844672e+00,8.283473684927090019e+00,0.000000000000000000e+00,2.371239420780988857e-02,-9.997188216498343882e-01,5.515820732465846277e+02
5.018275199250070706e+00,2.074065263388740643e+00,8.520102673342332622e+00,-3.722173947045021025e-02,2.437463469581317016e-02,-9.990097193192064573e-01,5.539422093517565600e+02
4.987745027928387920e+00,2.502110978116959483e+00,8.677477828432126117e+00,-7.493799582785765079e-02,2.501206990918967282e-02,-9.968744620764250497e-01,5.563023454569284922e+02
4.972092230599104212e+00,3.000676556209317614e+00,8.762197685990818385e+00,-1.129942620403757564e-01,2.562074751426867206e-02,-9.932652586508605719e-01,5.586624815621004245e+02
4.962766865327763455e+00,3.533815448728641950e+00,8.780853977892977724e+00,-1.512258934701751489e-01,2.619695052252335107e-02,-9.881520373543070113e-01,5.610226176672723568e+02
4.956343004296484445e+00,4.082879049119730652e+00,8.740032249334690917e+00,-1.894613837176785109e-01,2.673729558518184515e-02,-9.815240705681003153e-01,5.633827537724442891e+02
4.951711357922149226e+00,4.637182128495324740e+00,8.646312475499509986e+00,-2.275260479770455924e-01,2.723882335306970423e-02,-9.733909512597122005e-01,5.657428898776162214e+02
4.949188692737259032e+00,5.188656557034460270e+00,8.506269677706413290e+00,-2.652459380848540271e-01,2.769907564785820814e-02,-9.637828352578915458e-01,5.681030259827881537e+02
4.950804507373070429e+00,5.727813142169241090e+00,8.326474539097034722e+00,-3.024517889383820934e-01,2.811615493536166396e-02,-9.527499132509134050e-01,5.704631620879600860e+02
4.962020637608754114e+00,6.238986030070844180e+00,8.113494019919381017e+00,-3.389827894550311860e-01,2.848876279333840966e-02,-9.403611321443431370e-01,5.728232981931320182e+02
4.996360863811980302e+00,6.692468850313289863e+00,7.873891972465311362e+00,-3.746899840017940964e-01,2.881621559353105336e-02,-9.267022399927618004e-01,5.751834342983039505e+02
5.086928082468855195e+00,7.029578015448828765e+00,7.614229755718970871e+00,-4.094391407294074581e-01,2.909843728919415951e-02,-9.118732757275493928e-01,5.775435704034758828e+02
5.180927697225152784e+00,7.154738825804883184e+00,7.452152814712360573e+00,-4.431129674748509051e-01,2.933593081613555809e-02,-8.959856590474999383e-01,5.789596201506838042e+02
5.417508867156330510e+00,7.190322470271870436e+00,7.174392112293785928e+00,-5.190535402317313363e-01,3.026396820035687565e-02,-8.542057800095210762e-01,5.813197562558557365e+02
5.728304774602196225e+00,7.043122712714574796e+00,6.884013219464717892e+00,-5.940385785797686058e-01,3.098908774204512176e-02,-8.038394389427803155e-01,5.836798923610276688e+02
6.066710779318154501e+00,6.806923649661742459e+00,6.577955365157634127e+00,-6.659269713468902729e-01,3.147018637834141097e-02,-7.453528669040392352e-01,5.860400284661996011e+02
6.411410543082255664e+00,6.531400812130316424e+00,6.253156309726572104e+00,-7.326463704424622803e-01,3.168163518566294301e-02,-6.798717304532149175e-01,5.884001645713715334e+02
6.747214386184912094e+00,6.246768294821184675e+00,5.906552058218745849e+00,-7.924701346517883938e-01,3.161796204795572218e-02,-6.090906255730016428e-01,5.907603006765434657e+02
7.051569640612910028e+00,5.978856401974478096e+00,5.535076573482994533e+00,-8.442339105662951537e-01,3.129453805071392980e-02,-5.350605163326231928e-01,5.931204367817153980e+02
7.267066920650419704e+00,5.771726856362033864e+00,5.161634154737516411e+00,-8.874313235737447680e-01,3.074407577672122124e-02,-4.599135220286383330e-01,5.953369753749220763e+02
7.387138735485843988e+00,5.621074293860828242e+00,4.737345260913826017e+00,-9.211498196875125277e-01,3.313331543694589959e-02,-3.877952979315492099e-01,5.976971114800940086e+02
7.426381752764848798e+00,5.526839316288684856e+00,4.289095127911777716e+00,-9.509113446686729976e-01,3.547000533995335603e-02,-3.074239634472235583e-01,6.000572475852659409e+02
7.433029681432011593e+00,5.460642059509362767e+00,3.823741366375436268e+00,-9.748838944013364927e-01,3.766812023212135624e-02,-2.195051369673664821e-01,6.024173836904378732e+02
7.426431433595695353e+00,5.407801838998591570e+00,3.348139985119221063e+00,-9.913034471615664867e-01,3.963437096587352215e-02,-1.254854265790843748e-01,6.047775197956098054e+02
7.414156794485491808e+00,5.360186646842456604e+00,2.869146033148493480e+00,-9.987681015097705783e-01,4.128070821901150961e-02,-2.753511459038209333e-02,6.071376559007817377e+02
7.398697733681338207e+00,5.312228191951786194e+00,2.393614241590961367e+00,-9.965227219415111470e-01,4.253881815223662516e-02,7.164435500786327238e-02,6.094977920059536700e+02
7.379669744536891507e+00,5.258177982762721747e+00,1.928399665598481638e+00,-9.846326502449245233e-01,4.337208899507462995e-02,1.691667992481370730e-01,6.118579281111256023e+02
7.353450432103866952e+00,5.189265688635606111e+00,1.480358326278899961e+00,-9.639745240414584471e-01,4.378075553541049131e-02,2.623668470744580095e-01,6.142180642162975346e+02
7.309926540425902175e+00,5.089365424708383046e+00,1.056347852717762770e+00,-9.360470614047373683e-01,4.379861963414207610e-02,3.491383389914371471e-01,6.165782003214694669e+02
7.223460500308152454e+00,4.927044967894705252e+00,6.632281241495759927e-01,-9.026779875664258102e-01,4.348327667544616554e-02,4.281140682255074048e-01,6.189383364266413992e+02
7.145642955162951004e+00,4.797704315014444276e+00,4.510554715600852971e-01,-8.657294076430799290e-01,4.290388604163330316e-02,4.986700806189284796e-01,6.202939073188026669e+02
6.951603850496645087e+00,4.501456392737969381e+00,1.082507563205312301e-01,-8.028117565271059020e-01,3.978580814147735650e-02,5.949036670355901668e-01,6.226540434239745991e+02
6.700869618437961250e+00,4.132175574378608829e+00,-1.960623880242704786e-01,-7.205515803254393115e-01,3.570915186254911694e-02,6.924812463625057424e-01,6.250141795291465314e+02
6.427016113525921170e+00,3.731024628400451792e+00,-4.650951171632762282e-01,-6.186300512808328156e-01,3.065811671379091441e-02,7.850840334205236859e-01,6.273743156343184637e+02
6.143874218700756451e+00,3.323066114255390779e+00,-7.020552831362666391e-01,-5.000508268285944746e-01,2.478155818650850870e-02,8.656414066817088582e-01,6.297344517394903960e+02
5.857495897562217557e+00,2.929882005461706740e+00,-9.101477346997441931e-01,-3.711780285171365490e-01,1.839486991670132021e-02,9.283795020932330555e-01,6.320945878446623283e+02
5.571485447898734122e+00,2.580383424427130201e+00,-1.092574617413230920e+00,-2.401838573634774432e-01,1.190305048481266753e-02,9.706544349309680353e-01,6.344547239498342606e+02
5.290380194780675005e+00,2.325239480497239164e+00,-1.252535673474169942e+00,-1.146873919964657151e-01,5.683686788490283776e-03,9.933853722607048908e-01,6.368148600550061929e+02
5.054598412528577001e+00,2.242155373106317295e+00,-1.379392257169096414e+00,-0.000000000000000000e+00,0.000000000000000000e+00,1.000000000000000000e+00,6.389166241638653219e+02
4.819871147512127862e+00,2.365510940638421378e+00,-1.506878952715676068e+00,0.000000000000000000e+00,1.222526457083739386e-03,9.999992527142516074e-01,6.412767602690372541e+02
4.610309891407360361e+00,2.666597240346019415e+00,-1.619236762967236398e+00,0.000000000000000000e+00,2.445069354141354932e-03,9.999970108134591529e-01,6.436368963742091864e+02
4.411463958861036261e+00,3.056637256160299021e+00,-1.717758961314330479e+00,0.000000000000000000e+00,3.667623209709063980e-03,9.999932742473779390e-01,6.459970324793811187e+02
4.217248265411213559e+00,3.491316132139469897e+00,-1.803737525494597316e+00,0.000000000000000000e+00,4.890182541979108156e-03,9.999880429858679642e-01,6.483571685845530510e+02
4.025124950096685694e+00,3.948623900948261323e+00,-1.878463258567053762e+00,0.000000000000000000e+00,6.112741868922642700e-03,9.999813170188950329e-01,6.507173046897249833e+02
3.834138028324909353e+00,4.417853928847583767e+00,-1.943225909777113625e+00,0.000000000000000000e+00,7.335295708412637068e-03,9.999730963565320874e-01,6.530774407948969156e+02
3.644208330208735802e+00,4.894251421888931475e+00,-1.999314295323656898e+00,0.000000000000000000e+00,8.557838578346790501e-03,9.999633810289589864e-01,6.554375769000688479e+02
3.456137230689986239e+00,5.376634008479778792e+00,-2.048016419039428104e+00,0.000000000000000000e+00,9.780364996770440217e-03,9.999521710864625046e-01,6.577977130052407801e+02
3.272358896976126363e+00,5.866791218670997843e+00,-2.090619592996034282e+00,0.000000000000000000e+00,1.100286948199946657e-02,9.999394665994347786e-01,6.601578491104127124e+02
3.099124981466337747e+00,6.370354010366932940e+00,-2.128410558044539158e+00,0.000000000000000000e+00,1.222534655274319301e-02,9.999252676583710864e-01,6.625179852155846447e+02
2.952061358297935811e+00,6.899547668307103088e+00,-2.162675604302485510e+00,0.000000000000000000e+00,1.344779072822725914e-02,9.999095743738680708e-01,6.648781213207565770e+02
2.913680728742102932e+00,7.068618162980443209e+00,-2.172782957394551850e+00,0.000000000000000000e+00,1.467019652831646516e-02,9.998923868766181888e-01,6.656070794279906977e+02
2.824175563272358858e+00,7.617913197664666569e+00,-2.203967229928849303e+00,0.000000000000000000e+00,1.514688179930740071e-02,9.998852794054715609e-01,6.679672155331626300e+02
2.777826039802175462e+00,8.167268910318993491e+00,-2.231230992990477890e+00,0.000000000000000000e+00,1.562356394882573156e-02,9.998779446760174272e-01,6.703273516383345623e+02
2.749327199405501521e+00,8.714373862344471533e+00,-2.252496950068889170e+00,0.000000000000000000e+00,1.610024265184654968e-02,9.998703826929526972e-01,6.726874877435064946e+02
2.728968851043575228e+00,9.255942786519172572e+00,-2.265687242891881503e+00,0.000000000000000000e+00,1.657691758335176971e-02,9.998625934614389088e-01,6.750476238486784268e+02
2.714100859567950774e+00,9.785981341917636911e+00,-2.268723256854458636e+00,0.000000000000000000e+00,1.705358841833126693e-02,9.998545769871028943e-01,6.774077599538503591e+02
2.706746631147137983e+00,1.029274590189351457e+01,-2.259525426377385404e+00,0.000000000000000000e+00,5.825643401640136221e-03,9.999830307955015485e-01,6.797678960590222914e+02
2.715242131575987816e+00,1.075283847451275498e+01,-2.236013040177345701e+00,0.000000000000000000e+00,-5.405869142971170271e-03,9.999853881826519242e-01,6.821280321641942237e+02
2.761269390607000496e+00,1.111945091394817808e+01,-2.196104046430620294e+00,0.000000000000000000e+00,-1.663669983677020653e-02,9.998616005320641875e-01,6.844881682693661560e+02
2.888770888287387706e+00,1.130144475962056205e+01,-2.140018182064137076e+00,0.000000000000000000e+00,-2.786260007479053613e-02,9.996117623943168162e-01,6.867781785030820174e+02
3.139447404499336347e+00,1.124962448924911484e+01,-2.063615943775098049e+00,-6.921152466399646541e-02,-1.421415036984987126e-02,9.975007382367936382e-01,6.891383146082539497e+02
3.474592932481245899e+00,1.101410169965695296e+01,-1.970022078152608991e+00,-1.399167816408260767e-01,-1.267287315631834821e-04,9.901632583342516725e-01,6.914984507134258820e+02
3.843426148785163754e+00,1.068804933627483322e+01,-1.862546663234891930e+00,-2.110230194217069810e-01,1.419127130940284892e-02,9.773780707038443039e-01,6.938585868185978143e+02
4.225763068508296527e+00,1.031978135920604700e+01,-1.744498477083096466e+00,-2.813640263771556294e-01,2.850996450253292722e-02,9.591774948281989177e-01,6.962187229237697466e+02
4.613830271919932002e+00,9.936671329180706280e+00,-1.619185307619996905e+00,-3.497919558785564931e-01,4.259569391985289916e-02,9.358585333596848299e-01,6.985788590289416788e+02
5.005237953686790142e+00,9.558732083557730519e+00,-1.489914262376625276e+00,-4.152691514243785909e-01,5.622972297995482843e-02,9.079591125865051904e-01,7.009389951341136111e+02
5.159931845394364558e+00,9.413284927075839192e+00,-1.438187434558755085e+00,-4.769433337063342382e-01,6.922451259086716269e-02,8.762037567196601096e-01,7.018750367926619447e+02
5.510688532912498161e+00,9.073397147903206061e+00,-1.312447625945130758e+00,-5.260688875627798078e-01,1.237993839391500206e-01,8.413829318893664144e-01,7.042351728978338770e+02
5.761406468862178443e+00,8.754191398512158884e+00,-1.204785293542686597e+00,-5.720129785598059291e-01,1.779124925162742232e-01,8.007173642214746589e-01,7.065953090030058092e+02
5.844421376649438393e+00,8.500840882347093341e+00,-1.142160872819343975e+00,-6.138622846817090029e-01,2.304881247402780775e-01,7.550154434175916363e-01,7.083984119355451412e+02
5.757177586995261720e+00,8.144490266365730591e+00,-1.095578544389435471e+00,-5.729643141237331649e-01,2.350333700441944174e-01,7.851568058078518542e-01,7.107585480407170735e+02
5.504802293424264192e+00,7.766657552926748309e+00,-1.092555612055431391e+00,-5.283321144842474393e-01,2.391547793796700849e-01,8.146595413450119505e-01,7.131186841458890058e+02
5.185546588993450889e+00,7.378462089836607340e+00,-1.127854049152885674e+00,-4.799647559634697136e-01,2.427323958038277996e-01,8.430390364984654550e-01,7.154788202510609381e+02
4.839198649267911101e+00,6.985266449318548787e+00,-1.196239417347542133e+00,-4.279763663622582204e-01,2.456437533208735702e-01,8.697674265513695158e-01,7.178389563562328703e+02
4.481874354627350066e+00,6.589700992319222017e+00,-1.292480376483291504e+00,-3.726141964777901494e-01,2.477710943427864354e-01,8.942975709412325225e-01,7.201990924614048026e+02
4.120104559470619598e+00,6.193117519370688662e+00,-1.411348194718275550e+00,-3.142681685139527836e-01,2.490098912325359459e-01,9.160947507366508091e-01,7.225592285665767349e+02
3.756542327051624941e+00,5.796320895739849099e+00,-1.547616258903838915e+00,-2.534682284736489155e-01,2.492777571686574656e-01,9.346734493583274128e-01,7.249193646717486672e+02
3.392281961856306705e+00,5.399993689978759726e+00,-1.696059585160809124e+00,-1.908672262553964827e-01,2.485224940635895330e-01,9.496348097484550443e-01,7.272795007769205995e+02
3.027818461751569767e+00,5.005045856235343038e+00,-1.851454329607014948e+00,-1.272094483913779328e-01,2.467279261688801739e-01,9.606992696407992138e-01,7.296396368820925318e+02
2.663488149124934257e+00,4.613071891328709206e+00,-2.008577299190615228e+00,-6.328780728466285033e-02,2.439164063877769517e-01,9.677290117300257899e-01,7.319997729872644641e+02
2.299779907393557199e+00,4.227146278102834387e+00,-2.162205462583885129e+00,1.048009021672093727e-04,2.401474450100477831e-01,9.707364182268618524e-01,7.343599090924363963e+02
1.937797915155955009e+00,3.853353931310660396e+00,-2.307115461091710173e+00,6.222316457216171826e-02,2.355126527120814661e-01,9.698773469893726684e-01,7.367200451976083286e+02
1.580298364679622480e+00,3.503816027745434436e+00,-2.438083119529572684e+00,1.224100159188115100e-01,2.301278849175110164e-01,9.654309631383019008e-01,7.390801813027802609e+02
1.234242829563695798e+00,3.202711769649607021e+00,-2.549882957025690455e+00,1.801243104225012936e-01,2.241239140295066268e-01,9.577701728258782854e-01,7.414403174079521932e+02
9.171739740139459585e-01,2.998277340841990934e+00,-2.637287697701661937e+00,2.349556292265847501e-01,2.176370379128007848e-01,9.473278060013238244e-01,7.438004535131241255e+02
6.731361689270592974e-01,2.986710900198237262e+00,-2.695067781186114342e+00,2.866254264111318673e-01,2.108007923681429752e-01,9.345634761061445417e-01,7.461605896182960578e+02
5.979854650531235549e-01,3.056242138365833583e+00,-2.711918751900379121e+00,3.349777391928526749e-01,2.037395048402665110e-01,9.199348500914007465e-01,7.472032591274121387e+02
5.306707404122633642e-01,3.404807325950881758e+00,-2.725677836252777819e+00,3.422682464456715534e-01,1.362854891376873989e-01,9.296659146841441679e-01,7.495633952325840710e+02
5.621137185483234822e-01,3.943685668580363846e+00,-2.693137397254350418e+00,3.479738705423595646e-01,6.786751759596236500e-02,9.350444831531443679e-01,7.519235313377560033e+02
5.848319407904560840e-01,4.242459145356820116e+00,-2.658286828958756676e+00,3.520140075390099099e-01,-5.478630810373027321e-04,9.359945717483463268e-01,7.531691757972336063e+02
5.986392805496036917e-01,4.735952088185904074e+00,-2.555230870363466078e+00,3.819909935783263322e-01,-6.877953444152966334e-02,9.216030905259864348e-01,7.555293119024055386e+02
5.791296072765834690e-01,5.139476779580929744e+00,-2.396564063865089800e+00,4.133247371772885148e-01,-1.456831383551903114e-01,8.988543179160390917e-01,7.578894480075774709e+02
5.458783141316249088e-01,5.498020027799054965e+00,-2.186923707700975772e+00,4.449302205487682960e-01,-2.309615215549797873e-01,8.652709832205359719e-01,7.602495841127494032e+02
5.069399725418882729e-01,5.834011971368422422e+00,-1.930942326832098876e+00,4.751553179575638830e-01,-3.232148834759512313e-01,8.183883936837530459e-01,7.626097202179213355e+02
4.656446076610263884e-01,6.158584530364483278e+00,-1.633248106742937189e+00,5.018365468864439682e-01,-4.196034647403429352e-01,7.563683048535213560e-01,7.649698563230932677e+02
4.233843407967695649e-01,6.477152941377491757e+00,-1.298465326837668909e+00,5.226038401497535846e-01,-5.158432957223324511e-01,6.788158222368222416e-01,7.673299924282652000e+02
3.807660140002036009e-01,6.792128750381876579e+00,-9.312147934729319010e-01,5.354390242294515545e-01,-6.067855385171516680e-01,5.874660514265169775e-01,7.696901285334371323e+02
3.381059693380126796e-01,7.104127397001690269e+00,-5.361142726675182102e-01,5.392895339289673906e-01,-6.875459117354743022e-01,4.862585915441623441e-01,7.720502646386090646e+02
2.956819728164389871e-01,7.412276629118715654e+00,-1.177789225293422587e-01,5.344016879432755829e-01,-7.547120922828726153e-01,3.805581344359710849e-01,7.744104007437809969e+02
2.539503677010892524e-01,7.713780783121816143e+00,3.191782745600365567e-01,5.221686306282370404e-01,-8.070011133256682623e-01,2.758425715493592056e-01,7.767705368489529292e+02
2.139055996907978097e-01,8.002523112127194693e+00,7.701460799631910659e-01,5.046113920723170887e-01,-8.451052099419218422e-01,1.765347759504017622e-01,7.791306729541248615e+02
1.778769350802092697e-01,8.266006464426451927e+00,1.230514566967279677e+00,4.838087133499490711e-01,-8.709921166206112675e-01,8.545093136657082311e-02,7.814908090592967937e+02
1.514230587599898759e-01,8.479099629351377843e+00,1.695674689087077969e+00,4.615159113798728563e-01,-8.871235124004860362e-01,3.864878967044011251e-03,7.838509451644687260e+02
1.446956406521388017e-01,8.592534130968223494e+00,2.109016239068155496e+00,4.390216570551887521e-01,-8.958922234213534397e-01,-6.809631891416674521e-02,7.859458746254538255e+02
1.637863469482063461e-01,8.604610753812142576e+00,2.570586351038864681e+00,4.361507850460406011e-01,-8.876658822441102492e-01,-1.477219489565040067e-01,7.883060107306257578e+02
2.044535912796119626e-01,8.518427021813218758e+00,3.022617164206307550e+00,4.302864311534108643e-01,-8.732817482878086901e-01,-2.285444711049674782e-01,7.906661468357976901e+02
2.583346081332975053e-01,8.376440576007897931e+00,3.459481205784051827e+00,4.213648275402278598e-01,-8.526583047272646709e-01,-3.089101770606159647e-01,7.930262829409696224e+02
3.290804857313852083e-01,8.193291778234746303e+00,3.875549582597478171e+00,4.095090214200683976e-01,-8.260973173627793598e-01,-3.871247649293407256e-01,7.953864190461415546e+02
4.351828801979804595e-01,7.962992849745004875e+00,4.265191453971574731e+00,3.950226034252588003e-01,-7.942658929855188621e-01,-4.616262926037107972e-01,7.977465551513134869e+02
4.608435623585813157e-01,7.912623502824852828e+00,4.337942954665304995e+00,3.783535305516018687e-01,-7.581180222335275332e-01,-5.311362069035234779e-01,7.982051621390500031e+02
6.174859743294773828e-01,7.630402609653682333e+00,4.696357369005641047e+00,3.435071758452699076e-01,-7.147673572671935371e-01,-6.091883494684373623e-01,8.005652982442219354e+02
8.068770061231719248e-01,7.315884055841322287e+00,5.026452571199262032e+00,3.028375610661422912e-01,-6.612594183992360763e-01,-6.863128974351383471e-01,8.029254343493938677e+02
1.010166516042198204e+00,6.986006022330339960e+00,5.333067815642469789e+00,2.568652122650180170e-01,-5.978274495726055848e-01,-7.593567035758365114e-01,8.052855704545658000e+02
1.220881904604885770e+00,6.650152324056770148e+00,5.621040157784107372e+00,2.067358184699713552e-01,-5.257656413892626279e-01,-8.251247128138196052e-01,8.076457065597377323e+02
1.439177267314839970e+00,6.314752699405300262e+00,5.895204907047093990e+00,1.541191262099701476e-01,-4.473781941954111385e-01,-8.809654058444794655e-01,8.100058426649096646e+02
1.671947231569793413e+00,5.986433434079648563e+00,6.160396079587162177e+00,1.009458522357872395e-01,-3.656330017151875333e-01,-9.252688490234243224e-01,8.123659787700815968e+02
1.938894627696839512e+00,5.675239735961333132e+00,6.421446850931181949e+00,4.907245269070006216e-02,-2.836318608800177388e-01,-9.576768045017365338e-01,8.147261148752535291e+02
2.289880350460919090e+00,5.399464022895972271e+00,6.683190008537335913e+00,-0.000000000000000000e+00,-2.041017182454783752e-01,-9.789496864544384724e-01,8.170862509804254614e+02
2.347370385653239744e+00,5.364413498028864247e+00,6.719887109502411526e+00,-5.641382234822179403e-02,-1.648646728103916881e-01,-9.847015386944339976e-01,8.174151280403794999e+02
2.813298286197091436e+00,5.144798974511649803e+00,6.984428510299523829e+00,-1.133841928723645781e-01,-1.242484405164987482e-01,-9.857516674274006130e-01,8.197752641455514322e+02
3.341713160962645812e+00,4.973332633194559094e+00,7.247319921468922566e+00,-1.700762903419439365e-01,-8.281897600104549950e-02,-9.819445364569533430e-01,8.221354002507233645e+02
3.860241244335375743e+00,4.830181856960328979e+00,7.500715943714779677e+00,-2.256552934659045995e-01,-4.118635012950749158e-02,-9.733362076352785053e-01,8.244955363558952968e+02
4.287656658211059124e+00,4.710292839385815888e+00,7.736770288169071641e+00,-2.793467611515190185e-01,3.937469914031367576e-05,-9.601902860807274287e-01,8.268556724610672291e+02
4.485868962772496360e+00,4.632895695937251368e+00,7.912379700968471319e+00,-2.872646601126176980e-01,4.079353852398229149e-05,-9.578512480475606106e-01,8.287741146020989618e+02
4.457451319625596931e+00,4.567991307166894721e+00,8.071505223348362179e+00,-2.964050316603689117e-01,4.243234677604601902e-05,-9.550623306391639034e-01,8.311342507072708941e+02
4.199307697036557485e+00,4.526820838753319975e+00,8.072061170203999936e+00,-3.070713187752912576e-01,4.434598452923663598e-05,-9.516865046952368568e-01,8.334943868124428263e+02
3.826303128362544825e+00,4.488812011860525253e+00,7.787036996489038465e+00,-3.196749335173368900e-01,4.660894229209741634e-05,-9.475272738598572442e-01,8.358545229176147586e+02
3.352372805232019193e+00,4.434421752106192827e+00,7.089395415104034370e+00,-3.347870000649317834e-01,4.932481286870128869e-05,-9.422938300522752941e-01,8.382146590227866909e+02
2.702676943521044706e+00,4.336194138272123411e+00,5.852060501208108612e+00,-3.532221640627061232e-01,5.264168675668450610e-05,-9.355394700619057424e-01,8.405747951279586232e+02
1.647820039312803964e+00,4.146099147390278183e+00,3.947905792937705716e+00,-3.761793182044859685e-01,5.677811868894144435e-05,-9.265468781078770588e-01,8.429349312331305555e+02
1.412624721075107503e+00,4.102121245817309081e+00,3.551882986381825091e+00,-4.054872071077190721e-01,6.206872500952850325e-05,-9.141007171091460881e-01,8.433446069488545618e+02
1.296144065145108659e-01,3.835322403170537520e+00,1.162277985642734990e+00,-4.440496307128225517e-01,6.904758733908226823e-05,-8.960021878858537292e-01,8.457047430540264941e+02
-6.681033385056281970e-01,3.601518272406353915e+00,-1.114811947803459047e+00,-4.966732724941614330e-01,7.860568053563959760e-05,-8.679375865873579787e-01,8.480648791591984264e+02
-9.045427429672466824e-01,3.432724816210650065e+00,-2.989936450631716092e+00,-5.715587600650381406e-01,9.228343531360360188e-05,-8.205611343932174284e-01,8.504250152643703586e+02
-9.136810583647877460e-01,3.295211544802170156e+00,-4.493173471879415182e+00,-6.821658222069241218e-01,1.126843255212249729e-04,-7.311974961082634561e-01,8.527851513695422909e+02
-8.307548421774497704e-01,3.172848376045256824e+00,-5.654566137057400077e+00,-8.415000448458128668e-01,1.427100052795531558e-04,-5.402570260147935288e-01,8.551452874747142232e+02
-7.105324115288467191e-01,3.057871252770071102e+00,-6.504125561282526391e+00,-9.921219145150487195e-01,1.734961375150743945e-04,-1.252760018442661827e-01,8.575054235798861555e+02
-5.751977216846756447e-01,2.946528058595812460e+00,-7.071833659433423236e+00,-8.930089046058564684e-01,1.619297277209795873e-04,4.500389650612617864e-01,8.598655596850580878e+02
-4.337385318788466448e-01,2.837012098721256148e+00,-7.387645953590621595e+00,-6.122086265348467560e-01,1.159518784894119947e-04,7.906962654214817476e-01,8.622256957902300201e+02
-2.897976445507575161e-01,2.728481944953797367e+00,-7.481494378022140346e+00,-3.981668980941893143e-01,7.954187633322351960e-05,9.173129863547889729e-01,8.645858318954019524e+02
-1.448527727135113241e-01,2.620609736659385458e+00,-7.383290081975400376e+00,-2.640330794326666841e-01,5.639543239160011600e-05,9.645136234314466428e-01,8.669459680005738846e+02
4.954620011839643923e-04,2.513404684121718802e+00,-7.122926230536111625e+00,-1.776113777022700346e-01,4.137141062394735478e-05,9.841007046024852212e-01,8.693061041057458169e+02
1.460025331835348716e-01,2.407212416735023286e+00,-6.730280803814618906e+00,-1.186303381799816287e-01,3.107141418478984651e-05,9.929384884764365093e-01,8.716662402109177492e+02
2.915722665723227691e-01,2.302885255109121676e+00,-6.235219394720047603e+00,-7.623478331678959496e-02,2.364522849740908529e-05,9.970898942690900046e-01,8.740263763160896815e+02
4.371836202839010088e-01,2.202206442784884199e+00,-5.667598005582431320e+00,-4.445166589658908901e-02,1.806576498519792305e-05,9.990115360057891802e-01,8.763865124212616138e+02
5.828933601186088165e-01,2.108779071344280887e+00,-5.057265843882878364e+00,-1.980881768590003061e-02,1.373261390116330282e-05,9.998037860266892896e-01,8.787466485264335461e+02
7.289275031285661344e-01,2.029822441233390951e+00,-4.434068117351788629e+00,-1.762388442230873814e-04,1.027600265713262266e-05,9.999999844171366670e-01,8.811067846316054784e+02
8.759624317658316617e-01,1.979770793813903307e+00,-3.827848828695153305e+00,1.581587939461008563e-02,7.457430750995352554e-06,9.998749211293189720e-01,8.834669207367774106e+02
