4.083289683335810771e+00,7.893591277959840724e+00,-9.981478183789587177e-01,-2.446679341596268153e-01,1.214981240008435742e-02,9.695308061390847110e-01,7.296874261076871448e+01
4.002707446930514834e+00,8.019310720768011436e+00,-1.103343440928364227e+00,-2.129764515385879908e-01,9.097714786948679633e-03,9.770149756660267970e-01,7.420583473731116442e+01
3.926337490892423343e+00,8.149024093526676893e+00,-1.197353190166356995e+00,-1.811938839034825388e-01,6.048975591987863082e-03,9.834287906758978348e-01,7.544292686385361435e+01
3.854911666533115788e+00,8.282577891261897918e+00,-1.279398513673361215e+00,-1.494231802697907063e-01,3.013278315669183378e-03,9.887687461443418480e-01,7.668001899039606428e+01
3.789175131365426719e+00,8.419825269574783277e+00,-1.348666958452051867e+00,-1.177652196089313680e-01,0.000000000000000000e+00,9.930414659270077049e-01,7.791711111693851421e+01
3.729658179935546158e+00,8.560397798395456448e+00,-1.404663054046249249e+00,-1.112655905280846014e-01,-1.548519017920544326e-03,9.937895000719658700e-01,7.915420324348096415e+01
3.676445689251771842e+00,8.703478363500101622e+00,-1.447560093813389459e+00,-1.047562068782471739e-01,-3.098092392093886212e-03,9.944931065341841014e-01,8.039129537002341408e+01
3.659812629384565863e+00,8.754495092898585185e+00,-1.458268570294725786e+00,-9.823793809771724783e-02,-4.648510559215016102e-03,9.951520983587834879e-01,8.082763021147212612e+01
3.618644455049310871e+00,8.899949770265580540e+00,-1.476389785952812783e+00,-9.171165891168710227e-02,-6.199563210789595796e-03,9.957663064372391792e-01,8.206472233801457605e+01
3.583531906273416112e+00,9.045375399903882396e+00,-1.482460856435630303e+00,-8.517824875011473229e-02,-7.751039434646346191e-03,9.963355796756161453e-01,8.330181446455702599e+01
3.554379565029016863e+00,9.189742221156526725e+00,-1.476866783751839884e+00,-7.863859115866426996e-02,-9.302727857521517554e-03,9.968597851428200318e-01,8.453890659109947592e+01
3.531103106222654553e+00,9.332017974642205616e+00,-1.459959517331600454e+00,-7.209357320362991262e-02,-1.085441678849181912e-02,9.973388081985552489e-01,8.577599871764192585e+01
3.513629032521455198e+00,9.471164893584242961e+00,-1.432058951256944601e+00,-6.554408487177490472e-02,-1.240589436302962090e-02,9.977725526007291679e-01,8.701309084418437578e+01
3.501894422702982901e+00,9.606136680928310412e+00,-1.393453830665053683e+00,-5.899101846603038712e-02,-1.395694868745226032e-02,9.981609405920852662e-01,8.825018297072682572e+01
3.495846692698941105e+00,9.735875463548540054e+00,-1.344402569892665156e+00,-5.243526799801039723e-02,-1.550736798353596381e-02,9.985039129658931367e-01,8.948727509726927565e+01
3.495443368488547975e+00,9.859308714781226612e+00,-1.285133984679782460e+00,-4.587772857830724887e-02,-1.705694073306426514e-02,9.988014291105734577e-01,9.072436722381172558e+01
3.500651869980217157e+00,9.975346136439837252e+00,-1.215847940507397196e+00,-3.931929580553717579e-02,-1.860545582208076101e-02,9.990534670331759903e-01,9.196145935035417551e+01
3.511449304999922472e+00,1.008287649135452568e+01,-1.136715918906263889e+00,-3.276086515510924502e-02,-2.015270268461673980e-02,9.992600233616845129e-01,9.319855147689662545e+01
3.527822272481246024e+00,1.018076437734372597e+01,-1.047881503341024700e+00,-2.620333136868973137e-02,-2.169847144566551533e-02,9.994211133261615698e-01,9.443564360343907538e+01
3.549766673925047300e+00,1.026784693336343857e+01,-9.494607860461919957e-01,-1.964758784533246136e-02,-2.324255306317724035e-02,9.995367707187992057e-01,9.567273572998152531e+01
3.577287532165871031e+00,1.034293046839114716e+01,-8.415426969672381574e-01,-1.309452603523912802e-02,-2.478473946885065629e-02,9.996070478329840414e-01,9.690982785652397524e+01
3.603941508596428367e+00,1.039281866952815925e+01,-7.470142065088735128e-01,-6.545034837105676365e-03,-2.632482370750143311e-02,9.996320153815353438e-01,9.790648150222475010e+01
3.642600020226930191e+00,1.044042483275843836e+01,-6.203240761864617925e-01,0.000000000000000000e+00,-2.786260007479053613e-02,9.996117623943168162e-01,9.914357362876720003e+01
3.686341909183378451e+00,1.047303161104526836e+01,-4.843375211872190111e-01,-1.438716682609858244e-01,-9.277796380274106955e-03,9.895528614309228033e-01,1.003806657553096500e+02
3.733603649343834707e+00,1.049104659636024905e+01,-3.391855095650433416e-01,-2.877433373706889119e-01,9.915699750557565792e-03,9.576562278277287454e-01,1.016177578818520999e+02
3.782299444759295248e+00,1.049543015745538099e+01,-1.850225337921719282e-01,-4.223874407570766820e-01,2.848686581763342288e-02,9.059676309706516939e-01,1.028548500083945498e+02
3.830742735661552434e+00,1.048713317675583845e+01,-2.210518832897786015e-02,-4.369949463466288875e-01,2.947203254255795560e-02,8.989809876550879375e-01,1.040919421349369998e+02
3.878030949612427669e+00,1.046711400059974473e+01,1.490794692433715374e-01,-4.537507006658256237e-01,3.060208253672599271e-02,8.906030620819174182e-01,1.053290342614794497e+02
3.908998298319587672e+00,1.044620268978325761e+01,2.703781584797875781e-01,-4.731410358160663132e-01,3.190981525385838680e-02,8.804086119054972404e-01,1.061679840248258273e+02
3.952591316374892028e+00,1.040533214159353115e+01,4.563876709912875751e-01,-4.957993272940382501e-01,3.343794712215660686e-02,8.677931382230648083e-01,1.074050761513682772e+02
3.993621872099978098e+00,1.035522217582602167e+01,6.490269761514776414e-01,-5.225582632763351443e-01,3.524263671563514916e-02,8.518748840287230228e-01,1.086421682779107272e+02
4.031575500841785065e+00,1.029674183233392704e+01,8.477656029072641042e-01,-5.545186303407607653e-01,3.739812383526809614e-02,8.313305413243331499e-01,1.098792604044531771e+02
4.065933910506125848e+00,1.023073927400799121e+01,1.052090362310906357e+00,-5.931304074457500741e-01,4.000219868985827043e-02,8.041120219616265663e-01,1.111163525309956270e+02
4.096173380484302129e+00,1.015804423344111385e+01,1.261503893424798850e+00,-6.402559570865806737e-01,4.318046366571640093e-02,7.669470366151500684e-01,1.123534446575380770e+02
4.121763159109243624e+00,1.007947041631705609e+01,1.475523254073993762e+00,-6.980975346011811800e-01,4.708144437287313522e-02,7.144530563861538619e-01,1.135905367840805269e+02
4.142163854812509705e+00,9.995817868402522066e+00,1.693678552453211639e+00,-7.685982863631835027e-01,5.183619146451662330e-02,6.376281702168056231e-01,1.148276289106229768e+02
4.156825816175922839e+00,9.907875312945906288e+00,1.915511615711119164e+00,-8.511717606682247528e-01,5.740515317040298382e-02,5.217387106880576608e-01,1.160647210371654268e+02
4.165187496079046703e+00,9.816422465229887706e+00,2.140574691740188218e+00,-9.362179857772549019e-01,6.314088337733055056e-02,3.457008995555411746e-01,1.173018131637078767e+02
4.166673795136426328e+00,9.722232330987980120e+00,2.368429180493508479e+00,-9.934617667430992727e-01,6.700154718955278477e-02,9.243652251077959237e-02,1.185389052902503266e+02
4.160694379602889903e+00,9.626073495376056499e+00,2.598644391232487028e+00,-9.739963176278683132e-01,6.568874859868636951e-02,-2.168321045299595462e-01,1.197759974167927766e+02
4.146792707781397525e+00,9.528706990915502217e+00,2.830785242444169292e+00,-8.610002264048869369e-01,5.806800949049544663e-02,-5.052788501456848547e-01,1.210130895433352265e+02
4.125029882300021100e+00,9.430849672323773802e+00,3.064417449430192786e+00,-7.021635256935033764e-01,4.735566498524519663e-02,-7.104391769739857310e-01,1.222501816698776764e+02
4.096068236952397079e+00,9.333145903348881944e+00,3.299134873639627763e+00,-5.507582294027139058e-01,3.714451298748664559e-02,-8.338379086489832170e-01,1.234872737964201264e+02
4.060787607975410829e+00,9.236203916360365085e+00,3.534551951531912817e+00,-4.269990715294464390e-01,2.879788573521785411e-02,-9.037933805301807677e-01,1.247243659229625763e+02
4.020053238637522064e+00,9.140629042207123689e+00,3.770285101991313059e+00,-3.306777964269925207e-01,2.230173794656941169e-02,-9.434801680134835555e-01,1.259614580495050262e+02
3.974718249660121216e+00,9.047025514804378332e+00,4.005951639466757364e+00,-2.561023947432261028e-01,1.727218626943192309e-02,-9.664953362475469101e-01,1.271985501760474762e+02
3.925626085316128222e+00,8.955998258309426419e+00,4.241168689650649526e+00,-1.977101441643010771e-01,1.333406679303364428e-02,-9.801698330173657103e-01,1.284356423025899403e+02
3.873612942130077119e+00,8.868154662107217590e+00,4.475552104623177208e+00,-1.512323595418921252e-01,1.019948871072534104e-02,-9.884456200810601834e-01,1.296727344291323902e+02
3.819510187089011133e+00,8.784106348751157256e+00,4.708715374387966612e+00,-1.135996264423751317e-01,7.661443033431398694e-03,-9.934970695290440412e-01,1.309098265556748402e+02
3.764146772274345132e+00,8.704470939943453445e+00,4.940268531715251932e+00,-8.263322388248504902e-02,5.572991366882572295e-03,-9.965644445182719746e-01,1.321469186822172901e+02
3.708351652844539714e+00,8.629873825593818992e+00,5.169817047189357417e+00,-5.677692598959191428e-02,3.829177944553054710e-03,-9.983795461003001082e-01,1.333840108087597400e+02
3.652956215337971990e+00,8.560949940964761140e+00,5.396960711329042759e+00,-3.490390101591551997e-02,2.354006414040580100e-03,-9.993879008411468146e-01,1.346211029353021900e+02
3.598796723323559377e+00,8.498345556893317720e+00,5.621292500613466636e+00,-1.618499842963995114e-02,1.091556788945638456e-03,-9.998684185079599329e-01,1.358581950618446399e+02
3.546716787505132196e+00,8.442720088074935347e+00,5.842397424201109857e+00,-0.000000000000000000e+00,-0.000000000000000000e+00,-1.000000000000000000e+00,1.370952871883870898e+02
3.497036716950108648e+00,8.394478516184488370e+00,6.059671478757728380e+00,0.000000000000000000e+00,0.000000000000000000e+00,-1.000000000000000000e+00,1.383323793149295398e+02
3.460631788540171172e+00,8.363358893499931668e+00,6.221116934252830077e+00,0.000000000000000000e+00,0.000000000000000000e+00,-1.000000000000000000e+00,1.392721653521311396e+02
3.413368319867533085e+00,8.329366910619757647e+00,6.427799357209468489e+00,0.000000000000000000e+00,0.000000000000000000e+00,-1.000000000000000000e+00,1.405092574786735895e+02
3.365973447626827930e+00,8.302229037113512788e+00,6.627551548088961297e+00,0.000000000000000000e+00,0.000000000000000000e+00,-1.000000000000000000e+00,1.417463496052160394e+02
3.318392093028707190e+00,8.282138502256023216e+00,6.819340589563555710e+00,0.000000000000000000e+00,0.000000000000000000e+00,-1.000000000000000000e+00,1.429834417317584894e+02
3.270974083267078836e+00,8.269475205801537498e+00,7.002168067303660592e+00,0.000000000000000000e+00,0.000000000000000000e+00,-1.000000000000000000e+00,1.442205338583009393e+02
3.224071981617774085e+00,8.264638194175111252e+00,7.175010174836014443e+00,0.000000000000000000e+00,0.000000000000000000e+00,-1.000000000000000000e+00,1.454576259848433892e+02
3.178042213404902228e+00,8.268046779773900568e+00,7.336814812636188954e+00,0.000000000000000000e+00,0.000000000000000000e+00,-1.000000000000000000e+00,1.466947181113858392e+02
3.133246209703863361e+00,8.280141711494302115e+00,7.486498607057527899e+00,0.000000000000000000e+00,0.000000000000000000e+00,-1.000000000000000000e+00,1.479318102379282891e+02
3.090051572368996524e+00,8.301386399710889208e+00,7.622943840647059766e+00,0.000000000000000000e+00,0.000000000000000000e+00,-1.000000000000000000e+00,1.491689023644707390e+02
3.048833264054205738e+00,8.332268199067444314e+00,7.744995285150297448e+00,0.000000000000000000e+00,0.000000000000000000e+00,-1.000000000000000000e+00,1.504059944910131890e+02
3.009974826986649088e+00,8.373299752583735156e+00,7.851456928231275612e+00,0.000000000000000000e+00,0.000000000000000000e+00,-1.000000000000000000e+00,1.516430866175556389e+02
2.973869634356901326e+00,8.425020400734474890e+00,7.941088584633162917e+00,0.000000000000000000e+00,0.000000000000000000e+00,-1.000000000000000000e+00,1.528801787440980888e+02
2.940922178304236301e+00,8.487997659319503896e+00,8.012602382177311355e+00,0.000000000000000000e+00,0.000000000000000000e+00,-1.000000000000000000e+00,1.541172708706405388e+02
2.940405815682911150e+00,8.489206171599054329e+00,8.013661686994689504e+00,0.000000000000000000e+00,-0.000000000000000000e+00,-1.000000000000000000e+00,1.541386266495729274e+02
2.938125453126458009e+00,8.495683149553521218e+00,8.018245462277683089e+00,-0.000000000000000000e+00,-0.000000000000000000e+00,-1.000000000000000000e+00,1.542435617106491463e+02
2.914666210569038629e+00,8.582547519019811944e+00,8.056405384467881348e+00,0.000000000000000000e+00,-2.529923584979845274e-03,-9.999967997382063212e-01,1.554806538371915963e+02
2.894576549243503383e+00,8.679296981400236533e+00,8.076748781348664252e+00,0.000000000000000000e+00,-5.060106415651064761e-03,-9.999871975795801005e-01,1.567177459637340462e+02
2.877595546957730122e+00,8.784073478197301554e+00,8.080890015051357622e+00,0.000000000000000000e+00,-7.590499930796201951e-03,-9.999711917404423556e-01,1.579548380902764961e+02
2.863460451569677545e+00,8.895043374459044472e+00,8.070397539689320610e+00,0.000000000000000000e+00,-1.012105554305523479e-02,-9.999487808056441995e-01,1.591919302168189461e+02
2.851906054100836752e+00,9.010392239931411140e+00,8.046798345490916660e+00,0.000000000000000000e+00,-1.265172464358435209e-02,-9.999199637288691545e-01,1.604290223433613960e+02
2.842664024624227181e+00,9.128319688750769600e+00,8.011582285446802842e+00,0.000000000000000000e+00,-1.518245860672012663e-02,-9.998847398328746250e-01,1.616661144699038459e+02
2.835462209320092963e+00,9.247034263175271107e+00,7.966206296730868885e+00,0.000000000000000000e+00,-1.771320879464800130e-02,-9.998431088096758623e-01,1.629032065964462959e+02
2.830023886897155005e+00,9.364748346989340888e+00,7.912098528855977086e+00,0.000000000000000000e+00,-2.024392656207407368e-02,-9.997950707206699761e-01,1.641402987229887458e+02
2.826066982377437142e+00,9.479673094311355186e+00,7.850662390261363477e+00,0.000000000000000000e+00,-2.277456326089916105e-02,-9.997406259967008824e-01,1.653773908495311957e+02
2.823303236037587371e+00,9.590013359590615849e+00,7.783280524797512534e+00,0.000000000000000000e+00,-2.530507024489399640e-02,-9.996797754380654100e-01,1.666144829760736457e+02
2.821437325088341996e+00,9.693962614596498995e+00,7.711318729375755687e+00,0.000000000000000000e+00,-2.783539887437464985e-02,-9.996125202144600097e-01,1.678515751026160956e+02
2.820165935455560824e+00,9.789697838180302369e+00,7.636129823883019085e+00,0.000000000000000000e+00,-3.036550052087695628e-02,-9.995388618648685108e-01,1.690886672291585455e+02
2.819176780800292548e+00,9.875374364528745730e+00,7.559057484326864973e+00,0.000000000000000000e+00,-3.289532657182914210e-02,-9.994588022973897035e-01,1.703257593557009955e+02
2.818147565680664268e+00,9.949120675527101554e+00,7.481440050071557657e+00,0.000000000000000000e+00,-3.542482843522127417e-02,-9.993723437890079664e-01,1.715628514822434454e+02
2.816744889514090300e+00,1.000903312270900614e+01,7.404614315952708914e+00,0.000000000000000000e+00,-3.795395754427082630e-02,-9.992794889853027218e-01,1.727999436087858953e+02
2.815330395929937168e+00,1.003857843456587240e+01,7.354735519117696185e+00,0.000000000000000000e+00,-4.048266536208305899e-02,-9.991802409000998253e-01,1.736248911360301292e+02
2.812188327813914590e+00,1.006561125736239326e+01,7.283109002275621080e+00,0.000000000000000000e+00,-4.301090338630535886e-02,-9.990746029150646690e-01,1.748619832625725792e+02
2.807704240810306562e+00,1.007348767018411273e+01,7.215910911010046114e+00,0.000000000000000000e+00,-4.553862315377427139e-02,-9.989625787792346667e-01,1.760990753891150291e+02
2.801492230174152720e+00,1.006012382160882446e+01,7.154507564532678110e+00,-0.000000000000000000e+00,-4.806577624515451230e-02,-9.988441726084960059e-01,1.773361675156574790e+02
2.793150868246340401e+00,1.002427213937998118e+01,7.099800028632900606e+00,0.000000000000000000e+00,-3.641311494671577165e-02,-9.993368226278250832e-01,1.785732596421999290e+02
2.782270384849211187e+00,9.966412429708061183e+00,7.051744996301633428e+00,0.000000000000000000e+00,-2.474914749781351869e-02,-9.996936929370573433e-01,1.798103517687423789e+02
2.768439817347400300e+00,9.887858684571401824e+00,7.009836337522863836e+00,0.000000000000000000e+00,-1.307862994191873358e-02,-9.999144710618215193e-01,1.810474438952848288e+02
2.755525925759355399e+00,9.813969072045539477e+00,6.982539061246685996e+00,0.000000000000000000e+00,-1.406330240796439769e-03,-9.999990111171379592e-01,1.819797142304960005e+02
2.734720050724162466e+00,9.697506782168417772e+00,6.951597701960489317e+00,0.000000000000000000e+00,1.026298145900358082e-02,-9.999473342189437730e-01,1.832168063570384504e+02
2.709815586202082294e+00,9.563722590511064325e+00,6.925519299623201341e+00,0.000000000000000000e+00,2.192454256709130619e-02,-9.997596283273413320e-01,1.844538984835809003e+02
2.680499387569788006e+00,9.413782976063332697e+00,6.903543530634435932e+00,8.371078542295332450e-03,2.024466047529516199e-02,-9.997600105856798702e-01,1.856909906101233503e+02
2.646675155720562334e+00,9.248929933164122374e+00,6.884288764057795440e+00,1.675386737599278072e-02,1.856082663545239805e-02,-9.996873529471883568e-01,1.869280827366658002e+02
2.608352247047621475e+00,9.070423260691034884e+00,6.866064612795293343e+00,2.514654878817640729e-02,1.687339944414538093e-02,-9.995413645643896894e-01,1.881651748632082501e+02
2.565534336296782403e+00,8.879483765106884974e+00,6.847183609918237934e+00,3.354729126506944548e-02,1.518274110354725717e-02,-9.993218018343036357e-01,1.894022669897507001e+02
2.518219210591245538e+00,8.677296776982197812e+00,6.825956427319042064e+00,4.195425144647998983e-02,1.348921724164576195e-02,-9.990284689656111494e-01,1.906393591162931500e+02
2.466398566725076069e+00,8.465015567493910709e+00,6.800687089088722104e+00,5.036557611366796611e-02,1.179319652390519065e-02,-9.986612184612392307e-01,1.918764512428355999e+02
2.410057810590497951e+00,8.243764674631046674e+00,6.769668166058360192e+00,5.877940420572220354e-02,1.009505025731041901e-02,-9.982199515144558610e-01,1.931135433693780499e+02
2.349175857666222278e+00,8.014643148587561328e+00,6.731175937888697725e+00,6.719386885939687692e-02,8.395151987771113170e-03,-9.977046183168686300e-01,1.943506354959204998e+02
2.283724933551405378e+00,7.778727725598159282e+00,6.683465508999995031e+00,7.560709946724068764e-02,6.693877091894459043e-03,-9.971152182770199879e-01,1.955877276224629497e+02
2.213670373583313644e+00,7.537075939274374470e+00,6.624765864503702417e+00,8.401722374875886246e-02,4.991602364160442618e-03,-9.964518001486017962e-01,1.968248197490053997e+02
2.138970420626298719e+00,7.290729178325419113e+00,6.553274852128913253e+00,9.242236982927835853e-02,3.288705600554583768e-03,-9.957144620676215974e-01,1.980619118755478496e+02
2.059560733745473993e+00,7.040680565006320890e+00,6.467947096042684585e+00,1.008206683211433086e-01,1.585565179729237287e-03,-9.949033514981939774e-01,1.992990040020902995e+02
1.975338576684089409e+00,6.787842816389856537e+00,6.369284054948570528e+00,1.092102544018465488e-01,-1.174403572242497878e-04,-9.940186650869522467e-01,2.005360961286327495e+02
1.886177349799178282e+00,6.533086208173396692e+00,6.258542422814927342e+00,1.175892698837103650e-01,-1.819932727304095438e-03,-9.930606484264110634e-01,2.017731882551751994e+02
1.791941342163560380e+00,6.277276302674280828e+00,6.136944669528146434e+00,1.259558652697586878e-01,-3.521534325337819828e-03,-9.920295957279409160e-01,2.030102803817176493e+02
1.692485322195035558e+00,6.021276472368840338e+00,6.005682504697872126e+00,1.343082017904792258e-01,-5.221868641847611688e-03,-9.909258494053403421e-01,2.042473725082600993e+02
1.609210102984838908e+00,5.818230223785929134e+00,5.894531175575275839e+00,1.426444534162548128e-01,-6.920560677964811974e-03,-9.897497995703158358e-01,2.052309868271975120e+02
1.499071510615667790e+00,5.564324772401584518e+00,5.747258832521889182e+00,1.509628088403461299e-01,-8.617237356331035672e-03,-9.885018834414923683e-01,2.064680789537399619e+02
1.383299195627580858e+00,5.312774057092790159e+00,5.593576522611408031e+00,1.592614734274361565e-01,-1.031152792694228944e-02,-9.871825846688817574e-01,2.077051710802824118e+02
1.261706054934354837e+00,5.064456966768765334e+00,5.434585042016420786e+00,1.675386711228975256e-01,-1.200306436691614582e-02,-9.857924325760354378e-01,2.089422632068248618e+02
1.134185662183714305e+00,4.820617339179666949e+00,5.270932926340339719e+00,1.757926463181132271e-01,-1.369148177319014746e-02,-9.843320013223836318e-01,2.101793553333673117e+02
1.000807008430444123e+00,4.583221459437895717e+00,5.102381070918976746e+00,1.840216656673749063e-01,-1.537641874719230389e-02,-9.828019089885388082e-01,2.114164474599097616e+02
9.170665390890776481e-01,4.444899397355431603e+00,4.997300408595894972e+00,1.889954299700194462e-01,-5.478079704047888847e-03,-9.819626867112637436e-01,2.121635499335326926e+02
7.743011739208925936e-01,4.225649758541476508e+00,4.817440047020881799e+00,1.945357906482172716e-01,5.603722682970589154e-03,-9.808794138164820264e-01,2.134006420600751426e+02
6.291061754931954741e-01,4.017593231921970265e+00,4.631223863664995832e+00,2.007420520710861411e-01,1.808852526265641164e-02,-9.794771226445830870e-01,2.146377341866175925e+02
4.834564340268783789e-01,3.822160965720268422e+00,4.438076454862871500e+00,2.077370833696447483e-01,3.225179603267011585e-02,-9.776528657175512782e-01,2.158748263131600424e+02
3.393339417628146171e-01,3.640808616815053966e+00,4.237402777669876386e+00,2.156742704606598449e-01,4.844312288230184782e-02,-9.752629762821267700e-01,2.171119184397024924e+02
1.995232600410410673e-01,3.474485736489765220e+00,4.029043330518375043e+00,2.247467988543631889e-01,6.711152011707875731e-02,-9.721033485552301734e-01,2.183490105662449423e+02
1.159249776017558242e-01,3.378230178714325849e+00,3.892113276171516478e+00,2.352000053181853290e-01,8.884097716288037738e-02,-9.678782145885245214e-01,2.191355570706316769e+02
-2.937360012763488154e-03,3.241316696148674570e+00,3.670768661578510006e+00,2.473475630348728471e-01,1.144007023422811548e-01,-9.621495010466420972e-01,2.203726491971741268e+02
-1.044758777943146227e-01,3.118446551298111658e+00,3.444508319446629496e+00,2.615918439683404539e-01,1.448160573281513375e-01,-9.542525958618992554e-01,2.216097413237165767e+02
-1.849602137697151649e-01,3.009044589530061042e+00,3.214475234271163551e+00,2.784469751262139692e-01,1.814670492874536079e-01,-9.431526875675891874e-01,2.228468334502590267e+02
-2.436891870318661502e-01,2.912570944012407459e+00,2.981810479618760112e+00,2.985571990049320501e-01,2.262180302846978075e-01,-9.271941553398839186e-01,2.240839255768014766e+02
-2.814453842701563069e-01,2.828529240974891668e+00,2.747652061820282210e+00,3.226858710095331095e-01,2.815634819397991873e-01,-9.036569228909583362e-01,2.253210177033439265e+02
-2.989540003570758664e-01,2.756462958420149878e+00,2.513133754978918333e+00,3.516027723772549018e-01,3.507048216714844791e-01,-8.679755863577042208e-01,2.265581098298863765e+02
-2.968846916567957073e-01,2.695953795670079423e+00,2.279388313460362081e+00,3.856760976491488413e-01,4.372520546976566003e-01,-8.124435908817311258e-01,2.277952019564288264e+02
-2.758532791515140303e-01,2.646620162286121847e+00,2.047550681493821578e+00,4.237237082338584648e-01,5.436566125935010652e-01,-7.244968644955669390e-01,2.290322940829712763e+02
-2.364233055911993397e-01,2.608115781192369642e+00,1.818761208978399768e+00,4.604785128542647210e-01,6.664777021054942852e-01,-5.863164775065635714e-01,2.302693862095137263e+02
-1.791074504842813664e-01,2.580128401179296649e+00,1.594168882606632698e+00,4.834373731984725198e-01,7.875433645158770313e-01,-3.821828818798317373e-01,2.315064783360561762e+02
-1.043688063642599223e-01,2.562378614294109624e+00,1.374934581461035865e+00,4.758054859072753384e-01,8.712125422998731050e-01,-1.208215449327370433e-01,2.327435704625986261e+02
-1.303606364036929109e-02,2.554500313035632963e+00,1.162278216023056476e+00,4.323128404729572050e-01,8.892197153358060158e-01,1.496459348606285766e-01,2.339806625891410761e+02
9.327933629324866582e-02,2.555924123572188122e+00,9.571491004674722580e-01,3.679764868372768505e-01,8.504455121490589464e-01,3.759464536345837327e-01,2.352177547156835260e+02
2.125914480009621632e-01,2.565998811568602544e+00,7.598078587993494226e-01,3.021512021198239917e-01,7.854397212014189167e-01,5.401750599727671576e-01,2.364548468422259759e+02
3.429479230145679458e-01,2.584109277372586888e+00,5.701602475708527074e-01,2.448679584269845277e-01,7.172909411691218429e-01,6.523292026672696808e-01,2.376919389687684259e+02
4.824246138654788019e-01,2.609674621715541321e+00,3.881338228220422293e-01,1.981458489348704721e-01,6.558995770679497683e-01,7.283776268886655858e-01,2.389290310953108758e+02
6.291202480493792715e-01,2.642146340073008748e+00,2.136777348181173874e-01,1.607501686980055411e-01,6.036208101818290039e-01,7.808977530887094565e-01,2.401661232218533257e+02
7.811511574685785497e-01,2.681006640224275817e+00,4.676258397087725699e-02,1.307755680485200300e-01,5.599017256762908179e-01,8.181734586176078183e-01,2.414032153483957757e+02
9.366460489343511053e-01,2.725766877930959176e+00,-1.126196624630249471e-01,1.065140406541526252e-01,5.234068458423984938e-01,8.453993333737833682e-01,2.426403074749382256e+02
1.093740801401311025e+00,2.775966106075064666e+00,-2.644556931430427360e-01,8.662798607722321798e-02,4.927837461022064880e-01,8.658289505472085423e-01,2.438773996014806755e+02
1.250573275657368422e+00,2.831169733001844602e+00,-4.087108149288073422e-01,7.011464956896160117e-02,4.668810826194778607e-01,8.815361538858664803e-01,2.451144917280231255e+02
1.405278122203323043e+00,2.890968286204778526e+00,-5.453288545797208009e-01,5.623024595247603369e-02,4.447755917851504148e-01,8.938751771876727314e-01,2.463515838545655754e+02
1.555984321133531134e+00,2.954955500263693136e+00,-6.742358224730615746e-01,4.442129270548669795e-02,4.257424402002800146e-01,9.037533531703683121e-01,2.475886759811080253e+02
1.700812537889576204e+00,3.022706423318608060e+00,-7.953435258574407252e-01,3.427208872222750613e-02,4.092153324004886850e-01,9.117939655771875040e-01,2.488257681076504753e+02
1.837866871774830546e+00,3.093797046594689792e+00,-9.085454960997931817e-01,2.546673311604604611e-02,3.947506166888709589e-01,9.184352977364013126e-01,2.500628602341929252e+02
1.918505324200941331e+00,3.140682484140898012e+00,-9.750825266154411475e-01,1.776214986795894915e-02,3.819985008678242755e-01,9.239922355554741618e-01,2.508454059548969610e+02
2.034773713276682106e+00,3.217494907465725085e+00,-1.072093086116730154e+00,1.096896491997979492e-02,3.706809701649463329e-01,9.286954830116049830e-01,2.520824980814394110e+02
2.138048960119636188e+00,3.296594156144790677e+00,-1.160729026529266017e+00,4.937872666454782254e-03,3.605751333708563378e-01,9.327171010591148725e-01,2.533195902079818609e+02
2.226307600098787809e+00,3.377630356161591685e+00,-1.240791865995209964e+00,-4.501745269200441266e-04,3.515007189883057603e-01,9.361875035982907267e-01,2.545566823345243108e+02
2.297639587130424932e+00,3.459935786746523245e+00,-1.312158468943541267e+00,-4.502596732881039804e-04,3.096721826016872181e-01,9.508432765650361995e-01,2.557937744610667608e+02
2.350398788726663302e+00,3.542186756235620848e+00,-1.374880334909496682e+00,-4.494450772714594445e-04,2.667129680845174433e-01,9.637759027152886793e-01,2.570308665876092391e+02
2.383035945717790316e+00,3.622733588886656975e+00,-1.429084106736754567e+00,-4.477079918196999247e-04,2.228574464957905066e-01,9.748509414771727721e-01,2.582679587141516890e+02
2.393934482981467049e+00,3.699930953366980191e+00,-1.474872291694318216e+00,-4.450420735222802631e-04,1.783622966285937916e-01,9.839647824383381813e-01,2.595050508406941390e+02
2.389014784676435799e+00,3.728846443576816050e+00,-1.489842757710726495e+00,-4.414580866148118269e-04,1.334992065514634951e-01,9.910488216858377442e-01,2.599987412795363753e+02
2.353164614514837716e+00,3.795759266498274886e+00,-1.519022746992479522e+00,-4.369837469024264636e-04,8.854665812351546206e-02,9.960719343402674175e-01,2.612358334060788252e+02
2.295091355733974492e+00,3.856795862494351468e+00,-1.539558546198422695e+00,-4.316627044797349388e-04,4.378136635939507831e-02,9.990410430142566689e-01,2.624729255326212751e+02
2.216636553114603725e+00,3.911717381924209480e+00,-1.551121892581331263e+00,-4.255527487359160349e-04,-5.300205705846807109e-04,9.999997689914997823e-01,2.637100176591637251e+02
2.119581810580028591e+00,3.960256992249610697e+00,-1.553359100416310978e+00,3.786458591962062192e-02,-1.414981622102888135e-03,9.992818776302033745e-01,2.649471097857061750e+02
2.005889181409297173e+00,4.002319501682706893e+00,-1.545923019739774862e+00,7.650526603172597140e-02,-2.307239500446051778e-03,9.970665077693173783e-01,2.661842019122486249e+02
1.987363063307384659e+00,4.007476458049942458e+00,-1.543523835400612887e+00,1.153255720557036235e-01,-3.202825501912085968e-03,9.933225832220009544e-01,2.663625322828035564e+02
1.845514204475377174e+00,4.037224682070667647e+00,-1.517503517555942816e+00,1.541481670607976751e-01,-4.097633361640331227e-03,9.880392461803477744e-01,2.675996244093460064e+02
1.692356024518196334e+00,4.061281008723453212e+00,-1.481135251059547464e+00,1.927932229617628779e-01,-4.987510600936830366e-03,9.812267311473028553e-01,2.688367165358884563e+02
1.530400507866017890e+00,4.080037684606459436e+00,-1.434061366895998724e+00,2.310825368223509702e-01,-5.868353752163556897e-03,9.729164525281635001e-01,2.700738086624309062e+02
1.362136599025544959e+00,4.093857291908306273e+00,-1.375893862240469057e+00,2.688436165479966555e-01,-6.736202439722697652e-03,9.631602843857739460e-01,2.713109007889733562e+02
1.190037173271729198e+00,4.103073896437338774e+00,-1.306213301073277933e+00,3.059135192724445895e-01,-7.587327327308139406e-03,9.520290705594950387e-01,2.725479929155158061e+02
1.072841905751692693e+00,4.106325484130477932e+00,-1.251163362769546650e+00,3.421422461676195126e-01,-8.418307444136425427e-03,9.396104594389912412e-01,2.733829031922744548e+02
8.997533441902574314e-01,4.107019168086058158e+00,-1.157407069831658530e+00,3.625753466063826314e-01,4.211304803699068584e-04,9.319543662016827046e-01,2.746199953188169047e+02
7.295079736758354194e-01,4.104021305843604139e+00,-1.051209441547872991e+00,3.852976799234836269e-01,1.035436628363379033e-02,9.227342439426670095e-01,2.758570874453593547e+02
5.645663284869852916e-01,4.097724337021383612e+00,-9.323360463657981434e-01,4.106545204709867170e-01,2.157250890116705830e-02,9.115357873810840950e-01,2.770941795719018046e+02
4.074063729489444396e-01,4.088496925736177623e+00,-8.005165366131884452e-01,4.390416586783137398e-01,3.430525322929627724e-02,8.978115456741849743e-01,2.783312716984442545e+02
2.605304742380638028e-01,4.076684890883773171e+00,-6.554438824849467826e-01,4.709026337500404336e-01,4.882686593367702166e-02,8.808329277963954373e-01,2.795683638249867045e+02
1.264168520454165279e-01,4.062598944268550838e+00,-4.970359743277492637e-01,5.067141611893076769e-01,6.546018355208112205e-02,8.596253388654525596e-01,2.808054559515291544e+02
6.757264610907238664e-03,4.046411512234196373e+00,-3.258288698937281680e-01,5.469483057757835720e-01,8.457475320133053809e-02,8.328833423294850213e-01,2.820425480780716043e+02
-9.819710486028886132e-02,4.028085054242717788e+00,-1.428468486683786287e-01,5.919914883982414500e-01,1.065714145611533770e-01,7.988670798464970746e-01,2.832796402046140543e+02
-1.888669034834636329e-01,4.007484520623759927e+00,5.078816579570931411e-02,6.419883220852067307e-01,1.318391363559598684e-01,7.552942714142187874e-01,2.845167323311565042e+02
-2.656325987178864145e-01,3.984470701408951765e+00,2.539844346407031384e-01,6.965661543934523747e-01,1.606607146730096580e-01,6.992737141593946548e-01,2.857538244576989541e+02
-3.288355957956086706e-01,3.958899599009119363e+00,4.656773103189377760e-01,7.544000828936131553e-01,1.930361384919914158e-01,6.273894836273639086e-01,2.869909165842414041e+02
-3.787792467670345053e-01,3.930621793408866527e+00,6.848262199697480179e-01,8.126411275389502364e-01,2.284021798201066045e-01,5.361406924359006787e-01,2.882280087107838540e+02
-4.157297541069717717e-01,3.899481797446529452e+00,9.104117170095692435e-01,8.664232171429125939e-01,2.652906432690423366e-01,4.230031718434544841e-01,2.894651008373263039e+02
-4.399169715379565027e-01,3.865317399735250792e+00,1.141432592580886363e+00,9.089961028883384309e-01,3.011209701870702360e-01,2.881878662390400803e-01,2.907021929638687538e+02
-4.515351044541507375e-01,3.827958992760437162e+00,1.376903038681156266e+00,9.331852356663111747e-01,3.324871475089341555e-01,1.364463728934690867e-01,2.919392850904112038e+02
-4.507433120437891461e-01,3.787228883659869982e+00,1.615849854932382978e+00,9.341502633789348087e-01,3.561599311857073791e-01,-2.265808568389559435e-02,2.931763772169536537e+02
-4.376662129313015903e-01,3.742940585154436395e+00,1.857309691067011048e+00,9.118190610839953525e-01,3.703700633942606513e-01,-1.772343532874836036e-01,2.944134693434961036e+02
-4.123942959226168936e-01,3.694898084049680786e+00,2.100326317321203007e+00,8.709124371766636674e-01,3.754143214871439316e-01,-3.171365857061451687e-01,2.956505614700385536e+02
-3.749842371780792716e-01,3.642895084673502204e+00,2.343947915006867166e+00,8.185420201450480659e-01,3.731552336319817753e-01,-4.367426391708562616e-01,2.968876535965810035e+02
-3.254591248703746498e-01,3.586714224552352892e+00,2.587224379582415690e+00,7.614505134482374427e-01,3.659882521270953482e-01,-5.350193593454065644e-01,2.981247457231234534e+02
-2.638085921410269208e-01,3.526126259553300724e+00,2.829204628580038960e+00,7.045310019934293289e-01,3.560442210862192480e-01,-6.138962289029327168e-01,2.993618378496659034e+02
-1.899888589235596559e-01,3.460889215635868599e+00,3.068933906762556507e+00,6.506728138085892121e-01,3.448761198610822976e-01,-6.765244646869595924e-01,3.005989299762083533e+02
-1.039226829571293087e-01,3.390747504265402057e+00,3.305451080874219461e+00,6.012412949834713416e-01,3.334760632921969226e-01,-7.261560578950897460e-01,3.018360221027508032e+02
-5.939321212535486616e-03,3.315433416271490241e+00,3.537786940999648966e+00,5.566438821864465591e-01,3.224145333985102835e-01,-7.656346759896799359e-01,3.030731142292932532e+02
1.027843906629643950e-01,3.234743897118751210e+00,3.765027213895720148e+00,5.167637447782426063e-01,3.119840821856401658e-01,-7.972585305567767566e-01,3.043102063558357031e+02
1.635410844560380716e-01,3.190487959849980015e+00,3.878939529241252071e+00,4.812358453420637061e-01,3.023084220982805714e-01,-8.228132710927534843e-01,3.049466157659950341e+02
2.897967930072392062e-01,3.099148351843456606e+00,4.093912622741767926e+00,4.496042979242212967e-01,2.934148850856644342e-01,-8.436608800331057978e-01,3.061837078925374840e+02
4.227750533550627132e-01,3.002408122193465978e+00,4.301680905852963477e+00,4.214045574090405366e-01,2.852791840142024915e-01,-8.608333091621637179e-01,3.074208000190799339e+02
5.609582413267910628e-01,2.900251988024964422e+00,4.501455717408645363e+00,3.962022473622566210e-01,2.778518226124713220e-01,-8.751126463810386946e-01,3.086578921456223839e+02
7.028435573748536003e-01,2.792658000082413494e+00,4.692425747147540349e+00,3.736085082961172477e-01,2.710731279239951275e-01,-8.870941561335252690e-01,3.098949842721648338e+02
8.472196774659592755e-01,2.679918569399079686e+00,4.873888759496925793e+00,3.532833449224508371e-01,2.648814910786053689e-01,-8.972339014350602104e-01,3.111320763987072837e+02
9.934467307022640803e-01,2.562960228296182308e+00,5.045383626413713074e+00,2.657136782167191513e-01,3.526211201874115408e-01,-8.972483417684966600e-01,3.123691685252497336e+02
1.141177152105719905e+00,2.443021782043692802e+00,5.206554998210383367e+00,2.247424806381981000e-01,2.981304626399884361e-01,-9.276901662961916095e-01,3.136062606517921836e+02
1.160285618580568112e+00,2.427422852381993401e+00,5.225967519462928479e+00,1.815062076069195451e-01,2.406317656204296218e-01,-9.534945463790280851e-01,3.137648006524108268e+02
1.310553424793131638e+00,2.304634410145832479e+00,5.367492651547294713e+00,1.366740810825479990e-01,1.810152374093577654e-01,-9.739372050527050906e-01,3.150018927789532768e+02
1.461575693880234672e+00,2.181517183191558296e+00,5.497768567328814804e+00,9.102437624966000507e-02,1.203158840511748401e-01,-9.885538179448525309e-01,3.162389849054957267e+02
1.613041229116294328e+00,2.059298684898303033e+00,5.616323109422771687e+00,4.537869421477612464e-02,5.962609373633436655e-02,-9.971888001061322004e-01,3.174760770320381766e+02
1.764782417470622811e+00,1.939362913751730977e+00,5.723045885597433546e+00,5.300273656876602468e-04,0.000000000000000000e+00,-9.999998595354860909e-01,3.187131691585806266e+02
1.916911115510689489e+00,1.823405336084418016e+00,5.818582933055330919e+00,6.762229579412515823e-04,1.092557233099940989e-01,-9.940134454053028978e-01,3.199502612851230765e+02
2.069685641417005950e+00,1.713283958635528181e+00,5.903943571872592777e+00,8.176825825610503119e-04,2.198949073366038565e-01,-9.755232242866495040e-01,3.211873534116655264e+02
2.158838972826002234e+00,1.653823080320042438e+00,5.948076839633543500e+00,9.488533571194163315e-04,3.277671663678022318e-01,-9.447580559744004347e-01,3.219049350183756815e+02
2.313633990027750720e+00,1.560457543890310328e+00,6.015612989539248723e+00,1.065309812990342326e-03,4.290253040927120565e-01,-9.032918429628147283e-01,3.231420271449181314e+02
2.469423558847411826e+00,1.477267260898790457e+00,6.075251500517779846e+00,1.010739106128700311e-03,4.083717930302466215e-01,-9.128151275388247665e-01,3.243791192714605813e+02
2.625656983618719131e+00,1.404337563506602882e+00,6.127502214570817785e+00,9.551648827496238238e-04,3.873249405706572501e-01,-9.219427737511605159e-01,3.256162113980030313e+02
2.781499344976666510e+00,1.341165792577167393e+00,6.172721456222359571e+00,8.986566897689833144e-04,3.659107567639507952e-01,-9.306495100200647963e-01,3.268533035245454812e+02
2.936111771843302520e+00,1.287281998265102700e+00,6.211245626663591146e+00,8.412902218721331508e-04,3.441576380074686248e-01,-9.389115040470442652e-01,3.280903956510879311e+02
3.088649221408502399e+00,1.242247628669193027e+00,6.243392156927822789e+00,7.831468964677229441e-04,3.220962104376162705e-01,-9.467066165938977651e-01,3.293274877776303811e+02
3.238258234078924769e+00,1.205654321031662590e+00,6.269460407314522143e+00,7.243133359256830788e-04,2.997591375043079931e-01,-9.540146407958657315e-01,3.305645799041728310e+02
3.384074657541900066e+00,1.177122792197446532e+00,6.289732515610875652e+00,6.648807634590821582e-04,2.771808940343943317e-01,-9.608175216532347518e-01,3.318016720307152809e+02
3.525221333984021044e+00,1.156301825364707270e+00,6.304474196514284756e+00,6.049443216031520415e-04,2.543975100903175801e-01,-9.670995506679829212e-01,3.330387641572577309e+02
3.660805744382119808e+00,1.142867350467436260e+00,6.313935494520850789e+00,5.446023246348930110e-04,2.314462888569671362e-01,-9.728475311078531584e-01,3.342758562838001808e+02
3.679190251341934559e+00,1.141970524677280663e+00,6.314609002565826579e+00,4.839554583474656646e-04,2.083655035984763315e-01,-9.780509100743517426e-01,3.344517312587400397e+02
3.801689062293606369e+00,1.142638444481162585e+00,6.314748308249183317e+00,4.231059422420200395e-04,1.851940793774998206e-01,-9.827018743977656845e-01,3.356888233852824897e+02
3.916606326310411390e+00,1.150123420448448064e+00,6.310080853941947510e+00,3.621566703429611868e-04,1.619712656898331660e-01,-9.867954083463196246e-01,3.369259155118249396e+02
4.022969400028728160e+00,1.164199313646689049e+00,6.300801681721512004e+00,3.012103474244573649e-04,1.387363064144951919e-01,-9.903293121758993678e-01,3.381630076383673895e+02
4.119779855591912288e+00,1.184664522529772501e+00,6.287092766578799008e+00,2.403686374302096626e-04,1.155281135025105488e-01,-9.933041816148108216e-01,3.394000997649098395e+02
4.206190191770961206e+00,1.210700379330401866e+00,6.268584870981773527e+00,1.797313402811951527e-04,9.238495062780244238e-02,-9.957233494270101293e-01,3.406371918914522894e+02
4.281675988725591075e+00,1.240226420184727729e+00,6.243817837607076093e+00,1.193956121346951779e-04,6.934413261405460160e-02,-9.975927911811974802e-01,3.418742840179947393e+02
4.345847601336936705e+00,1.270533783011772222e+00,6.210775113113713886e+00,5.945524254798196259e-05,4.644174585624339519e-02,-9.989209982310404135e-01,3.431113761445371892e+02
4.398267170949039517e+00,1.298918242328928718e+00,6.167416695397609061e+00,0.000000000000000000e+00,2.371239420780988857e-02,-9.997188216498343882e-01,3.443484682710796392e+02
4.435224466101399088e+00,1.320893792449465032e+00,6.117214650818683097e+00,5.323020887888260334e-06,1.185703075593249819e-02,-9.999297029258198410e-01,3.454737340395479919e+02
4.464929034151501774e+00,1.339276998988893075e+00,6.049728632060066502e+00,1.064529351364108455e-05,0.000000000000000000e+00,-9.999999999433388798e-01,3.467108261660904418e+02
4.485060406704558744e+00,1.350649512380006634e+00,5.969989724976810130e+00,1.060318261126467842e-05,8.885956924297404302e-02,-9.960441641019366354e-01,3.479479182926328917e+02
4.496966613924062273e+00,1.353727455524801337e+00,5.878009016563503941e+00,1.046960222196944700e-05,1.809307051025628166e-01,-9.834958463773383341e-01,3.491850104191753417e+02
4.501782260000442015e+00,1.347828788181950177e+00,5.773986462644274731e+00,1.023818399650450939e-05,2.739047780581185809e-01,-9.617568156514995081e-01,3.504221025457177916e+02
4.500454665687523281e+00,1.335509622056166634e+00,5.674936372413632135e+00,9.909987275557813219e-06,3.652063710944197239e-01,-9.309265848679137978e-01,3.514833506378877246e+02
4.493054242903439466e+00,1.313766592621145257e+00,5.548801341547697774e+00,9.494030014406252987e-06,4.523267640341267493e-01,-8.918522851057113510e-01,3.527204427644301745e+02
4.480319220067269015e+00,1.285734668868801167e+00,5.412740999554474186e+00,9.006090025589493186e-06,5.331574178796056884e-01,-8.460160563954102209e-01,3.539575348909726245e+02
4.462780556091710871e+00,1.252526871758474991e+00,5.267501067610246501e+00,8.466130617035071110e-06,6.062249577557686786e-01,-7.952932166957926707e-01,3.551946270175150744e+02
4.440961857833576332e+00,1.215238388741064268e+00,5.113801256983059318e+00,8.689568219656019189e-06,6.274795760552184243e-01,-7.786330211068976936e-01,3.564317191440575243e+02
4.415380787620080127e+00,1.174949736911784948e+00,4.952337308298029761e+00,8.935847530848801024e-06,6.510833795288267778e-01,-7.590062139544525577e-01,3.576688112705999743e+02
4.386550471970754650e+00,1.132729876128183211e+00,4.783782962882817458e+00,9.207345826601955746e-06,6.773416404848465744e-01,-7.356686088046175964e-01,3.589059033971424242e+02
4.354980915291390531e+00,1.089639280958203171e+00,4.608791871779726712e+00,9.506145450612976401e-06,7.065666868881070872e-01,-7.076464632071560734e-01,3.601429955236848741e+02
4.321180422381234898e+00,1.046732980182294659e+00,4.427999447833873781e+00,9.833466071932818131e-06,7.390403113021704051e-01,-6.736612042961164226e-01,3.613800876502273240e+02
4.285657033669899363e+00,1.005063572457056464e+00,4.242024666105424835e+00,1.018862194736260744e-05,7.749383590250269460e-01,-6.320368182375062371e-01,3.626171797767697740e+02
4.248919977179204110e+00,9.656842266382785755e-01,4.051471817726417513e+00,1.056718423120892438e-05,8.141889882802124667e-01,-5.805999407953625902e-01,3.638542719033122239e+02
4.211446179194535233e+00,9.295223347377205014e-01,3.856961314378897221e+00,1.095790482842951673e-05,8.562221134011407386e-01,-5.166078710228952930e-01,3.650913640298546738e+02
4.173645694954742247e+00,8.972530712179483947e-01,3.659160538411191155e+00,1.133797472731185300e-05,8.995612785630444641e-01,-4.367945809891318198e-01,3.663284561563971238e+02
4.135896385497952465e+00,8.694310495830479546e-01,3.458756641584268543e+00,1.166678294755246191e-05,9.412458916351454929e-01,-3.377220326597690225e-01,3.675655482829395737e+02
4.098579518241429298e+00,8.466213631977739240e-01,3.256429399847816430e+00,1.188040017266700117e-05,9.762308494074551923e-01,-2.167333119851554135e-01,3.688026404094820236e+02
4.062080926271554482e+00,8.294011743552560656e-01,3.052853139447138986e+00,1.189323966528921104e-05,9.972772034727249713e-01,-7.374401190721874277e-02,3.700397325360244736e+02
4.026792190041867059e+00,8.183613309487008936e-01,2.848698647592474931e+00,1.161706731827799912e-05,9.962501859885747324e-01,8.651917003054286626e-02,3.712768246625669235e+02
3.993111845051271480e+00,8.141080152292033967e-01,2.644635073102822531e+00,1.100058183702884681e-05,9.673320065258492750e-01,2.535128971663207498e-01,3.725139167891093734e+02
3.961446317495456171e+00,8.171137205383086632e-01,2.441340217214839292e+00,1.006812483627236609e-05,9.106289904720902273e-01,4.132249285926667404e-01,3.737510089156518234e+02
3.932209721023579796e+00,8.275678442707362636e-01,2.239510848892468431e+00,8.919929466743866753e-06,8.329209569539495206e-01,5.533919762585574054e-01,3.749881010421942733e+02
3.905823699622956724e+00,8.455278935840577770e-01,2.039856284259047747e+00,7.687317436305824006e-06,7.444490006808768268e-01,6.676793282153857811e-01,3.762251931687367232e+02
3.882718464107116851e+00,8.710703123771655898e-01,1.843092001600998620e+00,6.481545770130244361e-06,6.546205315081855547e-01,7.559576441084052689e-01,3.774622852952791732e+02
3.863334136824942089e+00,9.042906458590932450e-01,1.649941668646931925e+00,5.370619333895865688e-06,5.697026207706370471e-01,8.218509134011010575e-01,3.786993774218216231e+02
3.848122125893935319e+00,9.453037515804167956e-01,1.461139193045335682e+00,4.383161705337441958e-06,4.927887690506188023e-01,8.701489694749766635e-01,3.799364695483640730e+02
3.837546533172320196e+00,9.942440574732726022e-01,1.277430801855850673e+00,3.522394564981930690e-06,4.247727926256291697e-01,9.052999915125465868e-01,3.811735616749065230e+02
3.832085600283789084e+00,1.051265867432979562e+00,1.099577155946642293e+00,2.778714940044782795e-06,3.653395036405180374e-01,9.308743454795489480e-01,3.824106538014489729e+02
3.832233197120860524e+00,1.116543715080493548e+00,9.283555052889239656e-01,2.137709914946830000e-06,3.136405190672737486e-01,9.495417972867973289e-01,3.836477459279914228e+02
3.838255426523550451e+00,1.187493205842033328e+00,7.707235354906855074e-01,1.584357503934895809e-06,2.686724933136560578e-01,9.632315875915372638e-01,3.848382677301318608e+02
3.851143166408093066e+00,1.269873294615833537e+00,6.151589977182012614e-01,1.104881451992676610e-06,2.294601624345200264e-01,9.733180538006591664e-01,3.860753598566743108e+02
3.871210530267872763e+00,1.361142378850521029e+00,4.686660580983174063e-01,6.873728590925521022e-07,1.951308632104559182e-01,9.807772153869960263e-01,3.873124519832167607e+02
3.899029562193306209e+00,1.461560464025516870e+00,3.321108261119404270e-01,3.218358475796730309e-07,1.649348297615228498e-01,9.863044671557733567e-01,3.885495441097592106e+02
3.935196120988182944e+00,1.571410262195999996e+00,2.063875692095336056e-01,-0.000000000000000000e+00,1.382410334876689184e-01,9.903986150334931349e-01,3.897866362363016606e+02
3.979594217347035556e+00,1.690849942289586627e+00,9.207468526997730773e-02,-1.129348552138139967e-03,1.186323196520174678e-01,9.929376099764926078e-01,3.910237283628441105e+02
4.030657176473008363e+00,1.819771243547344541e+00,-1.091021994003417081e-02,-2.260479449824419600e-03,9.893827734828550269e-02,9.950910046362647643e-01,3.922608204893865604e+02
4.086099123096596841e+00,1.957955533548965343e+00,-1.029640048240741956e-01,-3.392058316567644807e-03,7.918188188668164040e-02,9.968544144062665424e-01,3.934979126159290104e+02
4.143645583899465912e+00,2.105223868660829556e+00,-1.844525550320547103e-01,-4.522744440997494147e-03,5.938641166327569831e-02,9.982248238210074121e-01,3.947350047424714603e+02
4.201027192070491800e+00,2.261436435566626990e+00,-2.557118201776338307e-01,-5.651198695379488005e-03,3.957531143525530593e-02,9.992006098267294245e-01,3.959720968690139102e+02
