9.118760678121288210e-01,7.004510435801976520e+00,6.290463127260977672e+00,4.239626142287693522e-01,-2.713689584338475624e-01,-8.640686258248453377e-01,1.249942539741667389e+02
9.450177686717324832e-01,6.746857665009780014e+00,6.248500929964881045e+00,4.126366442888549924e-01,-2.797685214234931772e-01,-8.668682565479863822e-01,1.265056134739730567e+02
9.935456769408087530e-01,6.491661235324327706e+00,6.212026507079571935e+00,4.012277619245246951e-01,-2.881085476775983034e-01,-8.694882102801290147e-01,1.280169729737793602e+02
9.957440464489960563e-01,6.482600029098505523e+00,6.210873783091900080e+00,3.897431368190626966e-01,-2.963839448884830197e-01,-8.719270866963464428e-01,1.280712101497602191e+02
1.069947640326559535e+00,6.233422138051260220e+00,6.183670215597440567e+00,3.781900658734636544e-01,-3.045897501123835949e-01,-8.741838240330810361e-01,1.295825696495665227e+02
1.160385660789384543e+00,5.989101319278869795e+00,6.164173352196390177e+00,3.665759501330921322e-01,-3.127211445743030560e-01,-8.762577009762360092e-01,1.310939291493728263e+02
1.267612506307793430e+00,5.750843250546427754e+00,6.153523109352658338e+00,3.549082712986311727e-01,-3.207734676568037013e-01,-8.781483367923934580e-01,1.326052886491791298e+02
1.391711496362406431e+00,5.519727863247211985e+00,6.152415561495025109e+00,3.242101598627593062e-01,-2.625111556082727615e-01,-9.088320336690235424e-01,1.341166481489854334e+02
1.531742424621757248e+00,5.296571249898040179e+00,6.160624561109875330e+00,2.912547442127291220e-01,-2.018730638581140435e-01,-9.351031708117107932e-01,1.356280076487917370e+02
1.572068898932051706e+00,5.240764443307289966e+00,6.165014936584503502e+00,2.565167202050478434e-01,-1.397916035104005139e-01,-9.563772685730439482e-01,1.360213233692551853e+02
1.741049712257614290e+00,5.035582959218199761e+00,6.190142282544235819e+00,2.205659556838312496e-01,-7.728520413864149730e-02,-9.723053308578158971e-01,1.375326828690614889e+02
1.922804156396306308e+00,4.840203177135024681e+00,6.223143821601156311e+00,1.840216656673749063e-01,-1.537641874719230389e-02,-9.828019089885388082e-01,1.390440423688677924e+02
2.115611706365932765e+00,4.654859495676380909e+00,6.263371899075368177e+00,1.215914223037137254e-01,-1.297906913928931899e-02,-9.924953751964981086e-01,1.405554018686740960e+02
2.181941665755365634e+00,4.597106844723820807e+00,6.278736389364839354e+00,5.842115383225071623e-02,-1.051988473495730700e-02,-9.982365956075101021e-01,1.410520334178419262e+02
2.390686802960577229e+00,4.430018741476059674e+00,6.331441144005450994e+00,-4.730092251022989698e-03,-8.028414844100014922e-03,-9.999565844487389166e-01,1.425633929176482297e+02
2.603606901652395056e+00,4.270052069206743184e+00,6.389330147697362072e+00,-6.006721676667188536e-02,-6.454836825654100899e-03,-9.981734641591408774e-01,1.440747524174545333e+02
2.817833756372921439e+00,4.115291727800965305e+00,6.451257618069594635e+00,-1.157372019967833759e-01,-4.846396767352493390e-03,-9.932680466582669565e-01,1.455861119172608369e+02
3.030565689340744218e+00,3.963693411604298333e+00,6.515978419359614193e+00,-1.712185429869531872e-01,-3.217685011040656747e-03,-9.852278198673618537e-01,1.470974714170671405e+02
3.238980213787491014e+00,3.813246290767529523e+00,6.582259252484348622e+00,-2.259901511997184365e-01,-1.583998646567573877e-03,-9.741282987928315817e-01,1.486088309168734440e+02
3.287460169673720234e+00,3.777101865390840363e+00,6.598301097530574033e+00,-2.795555476478078782e-01,3.936870254411854270e-05,-9.601295195073629163e-01,1.489715677389185942e+02
3.481914320803767282e+00,3.626073500499601199e+00,6.664748871722427026e+00,-2.549886929309744255e-01,2.198768040441283385e-03,-9.669415348905318064e-01,1.504829272387248977e+02
3.668427999642992265e+00,3.475417504540051272e+00,6.729299907924850999e+00,-2.301053916792790421e-01,4.369725828899917106e-03,-9.731559043731409231e-01,1.519942867385312013e+02
3.847057291829357517e+00,3.326683504262978985e+00,6.790061672684545080e+00,-2.049514065689240494e-01,6.547989687362073229e-03,-9.787502463736466041e-01,1.535056462383375049e+02
4.017835590194073880e+00,3.181429004182874998e+00,6.845125575456420641e+00,-1.795747825712423196e-01,8.729202661779020614e-03,-9.837055954325870655e-01,1.550170057381438085e+02
4.180773817742265308e+00,3.041226183470435274e+00,6.892558880953211009e+00,-1.540254021585079069e-01,1.090894563294585520e-02,-9.880066651572181335e-01,1.565283652379501120e+02
4.335860602958669041e+00,2.907668753959371521e+00,6.930396519181766024e+00,-1.283545020121881208e-01,1.308278149219404760e-02,-9.916420536875343306e-01,1.580397247377564156e+02
4.483062408727453985e+00,2.782378908823410768e+00,6.956632758461188004e+00,-1.026141619804784993e-01,1.524630006905623378e-02,-9.946043857208998196e-01,1.595510842375627192e+02
4.622323616168345417e+00,2.667014391856351807e+00,6.969212706137293267e+00,-7.685677809975988151e-02,1.739516275630589512e-02,-9.968903871403345107e-01,1.610624437373690228e+02
4.753566564712591536e+00,2.563275717792888653e+00,6.966023600977687913e+00,-5.113453207468400541e-02,1.952514578277643117e-02,-9.985008904911724104e-01,1.625738032371753263e+02
4.876691549773338963e+00,2.472913574741930631e+00,6.944885860349015338e+00,-2.549886966960226639e-02,2.163218113357458228e-02,-9.994407718244122663e-01,1.640851627369816299e+02
4.991576779406900144e+00,2.397736440570287897e+00,6.903543844238805072e+00,0.000000000000000000e+00,2.371239420780988857e-02,-9.997188216498343882e-01,1.655965222367879335e+02
5.004491366974292532e+00,2.390619030881178997e+00,6.896056169274269010e+00,-5.194671851607703117e-02,4.839363194528169265e-02,-9.974766136719978027e-01,1.657791900466912978e+02
5.103328910750358105e+00,2.348340296456056908e+00,6.813508709132316987e+00,-1.066712950844201646e-01,7.430929400538961727e-02,-9.915136729412423744e-01,1.672905495464976013e+02
5.193995605757931955e+00,2.322568267013130683e+00,6.710548035017178670e+00,-1.637469249412985828e-01,1.012434294450667571e-01,-9.812933876096743280e-01,1.688019090463039049e+02
5.276638898878864836e+00,2.312842010339495769e+00,6.588955697025515867e+00,-2.225805305581420590e-01,1.289027159013926560e-01,-9.663550058077522431e-01,1.703132685461102085e+02
5.351368861398430710e+00,2.318768053372830096e+00,6.450434293545311171e+00,-2.824214601939179503e-01,1.569219064500932681e-01,-9.463686565488120817e-01,1.718246280459165121e+02
5.418259134147731970e+00,2.340018967721526177e+00,6.296614686015333362e+00,-3.423917590984182358e-01,1.848794936552192736e-01,-9.211880677295382069e-01,1.733359875457228156e+02
5.477347707666738508e+00,2.376332230473397367e+00,6.129062909699583450e+00,-4.015381905865734735e-01,2.123234260726291900e-01,-8.908904782526534394e-01,1.748473470455291192e+02
5.528637542668803029e+00,2.427509356591910361e+00,5.949286809761145101e+00,-4.589007892384905363e-01,2.388041515706450790e-01,-8.557935748934522024e-01,1.763587065453354228e+02
5.572097035381819552e+00,2.493415300321077943e+00,5.758742430755701136e+00,-5.135876386366365898e-01,2.639099281017555088e-01,-8.164430704519267668e-01,1.778700660451417264e+02
5.607660331662892794e+00,2.573978124136267809e+00,5.558840186620058965e+00,-5.648429203680978006e-01,2.872982376725458642e-01,-7.735710684483281252e-01,1.793814255449480299e+02
5.635227493129520759e+00,2.669188934892911647e+00,5.350950837301127194e+00,-6.120964590058288746e-01,3.087178675984600384e-01,-7.280324189883204955e-01,1.808927850447543335e+02
5.654664517918740252e+00,2.779102087943016830e+00,5.136411297351602734e+00,-6.549876997267236600e-01,3.280185828768538703e-01,-6.807311675648145544e-01,1.824041445445606371e+02
5.665803218073546255e+00,2.903835661115243383e+00,4.916530301106147860e+00,-6.933634180012041570e-01,3.451483672680474846e-01,-6.325502155164349771e-01,1.839155040443669407e+02
5.667255510581664879e+00,2.983080352865705720e+00,4.789433868210848821e+00,-7.272540591691935008e-01,3.601408110291263176e-01,-5.842945572681765842e-01,1.847730228765086622e+02
5.661055360953109350e+00,3.137806944599275560e+00,4.562415908338186554e+00,-7.568367543073092341e-01,3.730966063713681558e-01,-5.366535657607670595e-01,1.862843823763149658e+02
5.646036626556312221e+00,3.307249166677483920e+00,4.333243842373235566e+00,-7.540440628978728466e-01,4.206275503220169854e-01,-5.044700339153633806e-01,1.877957418761212693e+02
5.622100541612037539e+00,3.489957488300670096e+00,4.102241177436900976e+00,-7.486226461577136782e-01,4.677274668981805661e-01,-4.698884446002413173e-01,1.893071013759275729e+02
5.589171054641803416e+00,3.683930772634162576e+00,3.869415924477229929e+00,-7.404904586925837862e-01,5.138537138996096543e-01,-4.331607568753485515e-01,1.908184608757338765e+02
5.547119562769242229e+00,3.887216609988978000e+00,3.634768371196615444e+00,-7.296482040098755117e-01,5.584711138719260504e-01,-3.946181868031597428e-01,1.923298203755401801e+02
5.495764679187367996e+00,4.097903372698235458e+00,3.398291083270175594e+00,-7.161837419787548953e-01,6.010814826401577049e-01,-3.546574388792909649e-01,1.938411798753464836e+02
5.434871718926861384e+00,4.314112446417023961e+00,3.159968872844233889e+00,-7.002689409184746916e-01,6.412509358801671278e-01,-3.137206522014889809e-01,1.953525393751527872e+02
5.364151901867772132e+00,4.533990606748667496e+00,2.919778734179093060e+00,-6.821491756389256311e-01,6.786315669222006131e-01,-2.722713693208539398e-01,1.968638988749590908e+02
5.283261270506382168e+00,4.755702510731286914e+00,2.677689746163614881e+00,-6.621269057880017073e-01,7.129750327387287534e-01,-2.307695025838888137e-01,1.983752583747653944e+02
5.269522688591552040e+00,4.789051422209091413e+00,2.641049982006808516e+00,-6.705413304699971988e-01,7.220356443234270394e-01,-1.704079002217311622e-01,1.986023120065834746e+02
5.167761777583938176e+00,5.010433465029033862e+00,2.395601370794639973e+00,-6.771080148367351059e-01,7.291066181207960240e-01,-9.964073291737418625e-02,2.001136715063897782e+02
5.056618145104578410e+00,5.230427485742912275e+00,2.148998043836777061e+00,-6.803968801737648731e-01,7.326480523244875975e-01,-1.693862080992621089e-02,2.016250310061960818e+02
4.937027738834034452e+00,5.447883163326028289e+00,1.901800189932276730e+00,-6.783778954899185587e-01,7.304740194336912795e-01,7.881077237951851500e-02,2.031363905060023853e+02
4.809882108027716541e+00,5.661632859738103818e+00,1.654565478550862778e+00,-6.684049073557954967e-01,7.197351543018368769e-01,1.876597652263308214e-01,2.046477500058086889e+02
4.676032079524579110e+00,5.870486946916742887e+00,1.407851422958687815e+00,-6.474745566889676951e-01,6.971974544719911071e-01,3.077213153458833172e-01,2.061591095056149925e+02
4.536412236447227464e+00,6.073228728055036996e+00,1.162276576885164392e+00,-6.129431434130060419e-01,6.600141965561345803e-01,4.343753714097325358e-01,2.076704690054212961e+02
4.392165714837240387e+00,6.268608070174788161e+00,9.184173442308068980e-01,-5.636671022710945111e-01,6.069539950460060007e-01,5.602555182369919340e-01,2.091818285052275996e+02
4.244527823461450744e+00,6.455334864340192880e+00,6.765869417570813393e-01,-5.010374234327268361e-01,5.395146613928009094e-01,6.766723213358929456e-01,2.106931880050339032e+02
4.094710015246406876e+00,6.632073429026966060e+00,4.369425377538254662e-01,-4.290601984002957447e-01,4.620099354477548714e-01,7.761792097810018554e-01,2.122045475048402068e+02
3.943904728674864302e+00,6.797436971067497780e+00,1.996505636580298004e-01,-3.531679374960842166e-01,3.802895179117833924e-01,8.547820134345278653e-01,2.137159070046465104e+02
3.793290107533362043e+00,6.949981794830663695e+00,-3.511258068970778135e-02,-2.785020422441202292e-01,2.998896449472793768e-01,9.124159212328822877e-01,2.152272665044528139e+02
3.644034617377891916e+00,7.088201235785129839e+00,-2.671597795482315574e-01,-2.087316580469627814e-01,2.247612344834865050e-01,9.517948741206926355e-01,2.167386260042591175e+02
3.497301576428375913e+00,7.210519293267512175e+00,-4.962924083702443534e-01,-1.457993299079414495e-01,1.569960095348884865e-01,9.767777681686435898e-01,2.182499855040654211e+02
3.354253618049643837e+00,7.315283935873313048e+00,-7.222994921293043324e-01,-9.028106766137028449e-02,9.721421469038174501e-02,9.911602924270399573e-01,2.197613450038717247e+02
3.216057101490945591e+00,7.400760051372518689e+00,-9.449568113122361890e-01,-4.190883270030657665e-02,4.512722728127578631e-02,9.981017899491022582e-01,2.212727045036780282e+02
3.083886487133745469e+00,7.465122011416737813e+00,-1.164025951786495261e+00,-0.000000000000000000e+00,0.000000000000000000e+00,1.000000000000000000e+00,2.227840640034843318e+02
2.958660857140835265e+00,7.507075782623599203e+00,-1.378971142518431670e+00,-1.326258686819220881e-05,4.044160665932687235e-03,9.999918222608682461e-01,2.242954235032906354e+02
2.840785276175202601e+00,7.526485799047718750e+00,-1.588674833242633033e+00,-2.652974092182099343e-05,8.089714003738531639e-03,9.999672773763702560e-01,2.258067830030969390e+02
2.776221469166320066e+00,7.524826789507184976e+00,-1.707513939362619970e+00,-3.980081275815450481e-05,1.213646199103995266e-02,9.999263496409299679e-01,2.266908913232634859e+02
2.673563605914963670e+00,7.499980111036270713e+00,-1.902861350514788663e+00,-5.307515175692012298e-05,1.618420623419465632e-02,9.998690257486714250e-01,2.282022508230697895e+02
2.578861473039478547e+00,7.453357354041667548e+00,-2.089005254152054292e+00,-6.635210623882966828e-05,2.023274801663473704e-02,9.997952948004372731e-01,2.297136103228760931e+02
2.492387524149546341e+00,7.385068445278122340e+00,-2.264423893222936357e+00,-7.963102362477325017e-05,2.428188834740964419e-02,9.997051483098324809e-01,2.312249698226823966e+02
2.414449875339760077e+00,7.295128923957125089e+00,-2.427550062369208561e+00,-9.291125059559136173e-05,2.833142800990549881e-02,9.995985802082849592e-01,2.327363293224887002e+02
2.345078171416253632e+00,7.184282380936966916e+00,-2.577209993227967733e+00,-1.061921332523345162e-04,3.238116761071305888e-02,9.994755868491225215e-01,2.342476888222950038e+02
2.283716079072177330e+00,7.054828962952733207e+00,-2.713063906922561941e+00,-1.194730172769187460e-04,3.643090762861640047e-02,9.993361670106577499e-01,2.357590483221013073e+02
2.236732324491538471e+00,6.928834900830668886e+00,-2.819070240328258148e+00,-1.327532480930851053e-04,4.048044846367430255e-02,9.991803218982822088e-01,2.370713559087015483e+02
2.189167804823500596e+00,6.770902314413830503e+00,-2.927347272003417711e+00,-1.460321710275709985e-04,4.452959048636623979e-02,9.990080551455636781e-01,2.385827154085078519e+02
2.147427706785410173e+00,6.603007831519285276e+00,-3.021727022728880829e+00,-1.593091314714008798e-04,4.857813408677471440e-02,9.988193728143482941e-01,2.400940749083141554e+02
2.110838156449565073e+00,6.428050680178336584e+00,-3.102080984488808646e+00,-1.725834750412032844e-04,5.262587972377568563e-02,9.986142833938651542e-01,2.416054344081204590e+02
2.078767851639447439e+00,6.248904632923903080e+00,-3.168221214983912404e+00,-1.858545477404619818e-04,5.667262797420888343e-02,9.983927977988342750e-01,2.431167939079267626e+02
2.050625221798140885e+00,6.068429959621488123e+00,-3.219899541225379469e+00,-1.991216961206082256e-04,6.071817958199967474e-02,9.981549293665780143e-01,2.446281534077330662e+02
2.025855842650183813e+00,5.889485342032697801e+00,-3.256806507901494729e+00,-2.123842674418613321e-04,6.476233550720417176e-02,9.979006938531385096e-01,2.461395129075393697e+02
2.003940094494597979e+00,5.714939799109099106e+00,-3.278570066060665145e+00,-2.256416098337258658e-04,6.880489697494961143e-02,9.976301094284044657e-01,2.476508724073456733e+02
1.984391054357946826e+00,5.547684672134182371e+00,-3.284753996554178102e+00,-2.388930724550528671e-04,7.284566552424188990e-02,9.973431966702486218e-01,2.491622319071519769e+02
1.966752613587070542e+00,5.390645719150866988e+00,-3.274856061558046871e+00,-2.521380056535733167e-04,7.688444305661207290e-02,9.970399785576808949e-01,2.506735914069582805e+02
1.950597813778943479e+00,5.246795368632917622e+00,-3.248305876340983112e+00,-2.653757611248136602e-04,8.092103188457445972e-02,9.967204804630238613e-01,2.521849509067645840e+02
1.935527395236877446e+00,5.119165183082944104e+00,-3.204462492260109929e+00,-2.786056920703019113e-04,8.495523477986845207e-02,9.963847301431137948e-01,2.536963104065708876e+02
1.921168553415114166e+00,5.010858584170850172e+00,-3.142611680742382063e+00,-2.918271533549746978e-04,8.898685502145665949e-02,9.960327577295351453e-01,2.552076699063771912e+02
1.907173900074593309e+00,4.925063892168730639e+00,-3.061962906742618173e+00,-3.050395016636969704e-04,9.301569644325238806e-02,9.956645957178948958e-01,2.567190294061834948e+02
1.893220627128281208e+00,4.865067733796304417e+00,-2.961645978853176153e+00,-3.182420956568052239e-04,9.704156348154953371e-02,9.952802789561465691e-01,2.582303889059897983e+02
1.878744682673451516e+00,4.832817094661276514e+00,-2.841333747077130933e+00,-2.653757611248136602e-04,8.092103188457445972e-02,9.967204804630238613e-01,2.597417484057961019e+02
1.872713737334663620e+00,4.830882993404059356e+00,-2.788221324611176666e+00,-2.123842674418613321e-04,6.476233550720417176e-02,9.979006938531385096e-01,2.603170058661704616e+02
1.854587347749349968e+00,4.851480393405763536e+00,-2.630478042473594069e+00,-1.593091314714008798e-04,4.857813408677471440e-02,9.988193728143482941e-01,2.618283653659767651e+02
1.833027155195593227e+00,4.896126001803952299e+00,-2.455556037066631614e+00,-1.061921332523345162e-04,3.238116761071305888e-02,9.994755868491225215e-01,2.633397248657830687e+02
1.806623333960504896e+00,4.962883475639409347e+00,-2.264691138862451325e+00,-5.307515175692012298e-05,1.618420623419465632e-02,9.998690257486714250e-01,2.648510843655893723e+02
1.773931930297871551e+00,5.049920836561686777e+00,-2.059051620332486898e+00,-0.000000000000000000e+00,0.000000000000000000e+00,1.000000000000000000e+00,2.663624438653956759e+02
1.733469397134074885e+00,5.155502926593996449e+00,-1.839743146502456073e+00,3.603101698719733751e-08,-2.062295177270571586e-02,9.997873243146161437e-01,2.678738033652019794e+02
1.684585185692994536e+00,5.277573171352464065e+00,-1.607607253621495147e+00,7.804417307402527922e-08,-4.466988034276730968e-02,9.990018026961496878e-01,2.693851628650082830e+02
1.628333924867690685e+00,5.413325683719265591e+00,-1.363018708586477556e+00,1.275690606430778178e-07,-7.301627334766506994e-02,9.973307494639893633e-01,2.708965223648145866e+02
1.566596241507722809e+00,5.559592331531313825e+00,-1.106093303606294542e+00,1.866583826472295339e-07,-1.068370294591702019e-01,9.942765456030357996e-01,2.724078818646208902e+02
1.555694208754181407e+00,5.585073886855796310e+00,-1.061643353948196200e+00,2.580992485157570780e-07,-1.477273971090893590e-01,9.890281169629643321e-01,2.726578246746632885e+02
1.486663236963310597e+00,5.745118214231194287e+00,-7.810932673829401596e-01,3.457025107200389167e-07,-1.978685810843442971e-01,9.802285573372918615e-01,2.741691841744695921e+02
1.416114325090415793e+00,5.908853625565853918e+00,-4.883928460533621951e-01,4.546566651827936757e-07,-2.602303033116052378e-01,9.655465753852287003e-01,2.756805436742758957e+02
1.345796163829397152e+00,6.073190097645847274e+00,-1.834539784163531639e-01,5.918085454913592263e-07,-3.387314628582391296e-01,9.408830937313983345e-01,2.771919031740821993e+02
1.277436420888189650e+00,6.235027806860235167e+00,1.338633074635321718e-01,7.653074077340772714e-07,-4.380364219695030426e-01,8.989572253603447249e-01,2.787032626738885028e+02
1.212749018851104088e+00,6.391244044359853049e+00,4.637514370419547616e-01,9.818288805907216358e-07,-5.619660877367617102e-01,8.271602723976014815e-01,2.802146221736948064e+02
1.153441260758550024e+00,6.538679982550961611e+00,8.064561046935466715e-01,1.237212868558428361e-06,-7.081393603160698325e-01,7.060726919868922646e-01,2.817259816735011100e+02
1.101220832646648606e+00,6.674127237514370314e+00,1.162277314837299125e+00,1.497230361399875949e-06,-8.569646964655985855e-01,5.153751148526505288e-01,2.832373411733074136e+02
1.057802711045508604e+00,6.794314170664129904e+00,1.530246853256426842e+00,1.688174169024689731e-06,-9.662545601778143034e-01,2.575890621372122768e-01,2.847487006731137171e+02
1.024919443709205069e+00,6.897345217402782502e+00,1.907353316792379960e+00,1.746768628399659860e-06,-9.997920734338832105e-01,-2.039141720738160690e-02,2.862600601729200207e+02
1.004345208717221771e+00,6.984145959721939967e+00,2.290406084920161955e+00,1.687108258448723120e-06,-9.656444685334407696e-01,-2.598668127867086453e-01,2.877714196727263243e+02
9.979200389157110163e-01,7.057013328986495360e+00,2.676792666993907055e+00,1.570925997489917117e-06,-8.991456193488970294e-01,-4.376495803759218872e-01,2.892827791725326279e+02
1.006784321199939880e+00,7.118126541544345542e+00,3.063871492240516581e+00,1.445580464446043150e-06,-8.274020190001637465e-01,-5.616100951303875100e-01,2.907941386723389314e+02
1.030606515057975958e+00,7.169518199174308215e+00,3.448917508982730862e+00,1.331569057771099592e-06,-7.621456943665528838e-01,-6.474055456641933937e-01,2.923054981721452350e+02
1.068357031196594420e+00,7.213138413220076650e+00,3.829153844375225546e+00,1.234067945821547468e-06,-7.063393114871781009e-01,-7.078734188019044637e-01,2.938168576719515386e+02
1.119079661263480130e+00,7.250911241521224682e+00,4.201783244535456596e+00,1.152341577761776233e-06,-6.595618656089800025e-01,-7.516502813363897806e-01,2.953282171717578422e+02
1.181887327855906777e+00,7.284742380705251819e+00,4.563976221175662040e+00,1.084016736211499740e-06,-6.204550062974656388e-01,-7.842420450085783035e-01,2.968395766715641457e+02
1.255958184820372248e+00,7.316526809183839575e+00,4.912859061645576730e+00,1.026621010911970756e-06,-5.876036084245652713e-01,-8.091489352185889938e-01,2.983509361713704493e+02
1.340532050932812025e+00,7.348156410992626064e+00,5.245501651574991264e+00,9.780293826169697578e-07,-5.597913818853832435e-01,-8.286335793134963490e-01,2.998622956711767529e+02
1.434907161669698450e+00,7.381527610645138182e+00,5.558905058515178688e+00,9.365300038744569559e-07,-5.360385223225184737e-01,-8.441935219991998363e-01,3.013736551709830565e+02
1.538437225354328808e+00,7.418549049322007427e+00,5.849988823964509699e+00,9.007753593637716362e-07,-5.155737569328514569e-01,-8.568452025665624916e-01,3.028850146707893600e+02
1.650528771480972656e+00,7.461149332986823701e+00,6.115577909927092826e+00,8.697107866803648843e-07,-4.977934321499777326e-01,-8.672956237106175248e-01,3.043963741705956636e+02
1.771167118103294191e+00,7.511094966140297480e+00,6.352261152699459679e+00,7.722889158733609783e-07,-4.420324042563299471e-01,-8.969990822664046792e-01,3.059077336704019672e+02
1.900824393467291262e+00,7.569341327769874894e+00,6.556349513834220488e+00,6.691452804793752366e-07,-3.829964292476998322e-01,-9.237498228324939609e-01,3.074190931702082707e+02
2.039241309211749620e+00,7.635710539717686096e+00,6.725856723601519427e+00,5.613076600793864393e-07,-3.212737738593567371e-01,-9.469863579956429023e-01,3.089304526700145743e+02
2.185442270878899862e+00,7.709495669346670965e+00,6.862285544415508198e+00,4.500422980679895842e-07,-2.575891935559750379e-01,-9.662545251448916295e-01,3.104418121698208779e+02
2.338413591361833355e+00,7.789975510667621172e+00,6.968765955022344194e+00,3.367846021261915972e-07,-1.927642677947787875e-01,-9.812450953056680580e-01,3.119531716696271815e+02
2.440544135960316829e+00,7.845705785915621178e+00,7.019783883773230926e+00,2.230484347725588319e-07,-1.276654809639826416e-01,-9.918172840650566480e-01,3.129255519847234837e+02
2.604182354776122033e+00,7.937886896660924840e+00,7.074230979736242375e+00,1.103269937516069635e-07,-6.314748962471558591e-02,-9.980042056795572769e-01,3.144369114845297872e+02
2.771878487649889866e+00,8.034942820476414838e+00,7.106296076534566630e+00,-0.000000000000000000e+00,-0.000000000000000000e+00,-1.000000000000000000e+00,3.159482709843360908e+02
2.942693192023223325e+00,8.136277758745118049e+00,7.118666882451344158e+00,0.000000000000000000e+00,1.010783461714689635e-01,-9.948784689273564297e-01,3.174596304841423944e+02
3.096420324648096134e+00,8.229669938898133807e+00,7.113968302544339650e+00,-5.411439407302801735e-02,1.010982064619702636e-01,-9.934036364964051735e-01,3.188037650077293392e+02
3.269974149819267151e+00,8.337601164922602948e+00,7.091859900066801004e+00,-1.094511716238257548e-01,1.008108083145047851e-01,-9.888668373229775321e-01,3.203151245075356428e+02
3.442734954633185573e+00,8.447594009120463099e+00,7.053123288559778992e+00,-1.655251575630466987e-01,1.001977933236182644e-01,-9.811023516569543634e-01,3.218264840073419464e+02
3.613151714645301382e+00,8.558830726524627508e+00,6.997897712944732618e+00,-2.218004284262919124e-01,9.924912421316289812e-02,-9.700279280994097419e-01,3.233378435071482500e+02
3.779657613498583313e+00,8.670509962732957376e+00,6.926252546120678311e+00,-2.777135500603188922e-01,9.796428624489282588e-02,-9.556558913821561196e-01,3.248492030069545535e+02
3.940663442145153184e+00,8.781843474950132844e+00,6.838187582931557706e+00,-3.327006400405698172e-01,9.635278800236396490e-02,-9.380972360905700524e-01,3.263605625067608571e+02
4.094550879313510805e+00,8.892052956202206815e+00,6.733633039295623846e+00,-3.862253616728764105e-01,9.443385489827794965e-02,-9.175577458937975717e-01,3.278719220065671607e+02
4.239665625150084161e+00,9.000366950134257138e+00,6.612449256495064986e+00,-4.378046765020170428e-01,9.223533198958543122e-02,-8.943263994570076481e-01,3.293832815063734643e+02
4.374310359250253910e+00,9.106017844390045468e+00,6.474426109373192517e+00,-4.870295321639711017e-01,8.979193611769348271e-02,-8.687575283175273944e-01,3.308946410061797678e+02
4.494469977261737803e+00,9.206349547216909457e+00,6.322163905970116460e+00,-5.335785543036569711e-01,8.714309002340615840e-02,-8.412490762243913789e-01,3.323779791131476031e+02
4.603610874863331759e+00,9.304554899804436729e+00,6.150056697009743445e+00,-5.589362479694551800e-01,9.139265391149961615e-02,-8.241587550447065924e-01,3.338893386129539067e+02
4.699766397033190657e+00,9.398458889111976688e+00,5.962033222710813263e+00,-5.865947208505083443e-01,9.603035389145067602e-02,-8.041671496659117402e-01,3.354006981127602103e+02
4.783893057772051982e+00,9.487929547772097294e+00,5.759566083989623664e+00,-6.167397924923329056e-01,1.010882780250389051e-01,-7.806492095701157430e-01,3.369120576125665139e+02
4.856894857840359236e+00,9.572809406335892390e+00,5.544066676699623386e+00,-6.495220285976399666e-01,1.065929279087471371e-01,-7.528340335600185451e-01,3.384234171123728174e+02
4.919626971394365000e+00,9.652915182181464715e+00,5.316891172421071232e+00,-6.850175195765887404e-01,1.125587452826513485e-01,-7.197788040318588987e-01,3.399347766121791210e+02
4.972899220968815648e+00,9.728037332999978304e+00,5.079346265238156022e+00,-7.231666683193871403e-01,1.189779702791260857e-01,-6.803485962505523288e-01,3.414461361119854246e+02
5.017479354714925677e+00,9.797939474410600980e+00,4.832694708855445498e+00,-7.636834703893096155e-01,1.258055577616446208e-01,-6.332144334192184587e-01,3.429574956117917282e+02
5.054096138950267658e+00,9.862357660580952867e+00,4.578160667517154891e+00,-8.059301777580784032e-01,1.329382602992986162e-01,-5.768916427956191084e-01,3.444688551115980317e+02
5.083442278276409709e+00,9.920999526056013096e+00,4.316934903403685020e+00,-8.487621781128398268e-01,1.401886163044481770e-01,-5.098528384384972689e-01,3.459802146114043353e+02
5.106177174767013938e+00,9.973543286322707146e+00,4.050179822487011805e+00,-8.903717074224309913e-01,1.472585206141445169e-01,-4.307588080680404552e-01,3.474915741112106389e+02
5.122929537020492141e+00,1.001963659395621242e+01,3.779034400226598756e+00,-9.282004810087624014e-01,1.537239704716479582e-01,-3.388403871405145651e-01,3.490029336110169425e+02
5.134299849203848076e+00,1.005889524650439526e+01,3.504619007978440504e+00,-9.590387930422051843e-01,1.590505789015337068e-01,-2.344088453775522995e-01,3.505142931108232460e+02
5.140862709585104717e+00,1.009090174156538033e+01,3.228040160569396466e+00,-9.794364976370026898e-01,1.626609780800211125e-01,-1.193547372608751711e-01,3.520256526106295496e+02
5.143169047458630239e+00,1.011520367379682384e+01,2.950395205154641154e+00,-9.864471348523639049e-01,1.640581697779567028e-01,2.639520916623288357e-03,3.535370121104358532e+02
5.141748226807293598e+00,1.013131196786060606e+01,2.672776971227084797e+00,-9.784933695919806329e-01,1.629701321146089232e-01,1.264573513208249733e-01,3.550483716102421567e+02
5.137110044515159402e+00,1.013869894055041243e+01,2.396278401483106890e+00,-9.559342821066915130e-01,1.594459855694563000e-01,2.465088760652426880e-01,3.565597311100484603e+02
5.129746630442499011e+00,1.013679618456793108e+01,2.121997183168017553e+00,-9.209885400617600082e-01,1.538454832863523636e-01,3.579269148126427713e-01,3.580710906098547639e+02
5.120134256198809020e+00,1.012499226560296783e+01,1.851040399526520108e+00,-8.770489483404729780e-01,1.467266813767474365e-01,4.574455412254411213e-01,3.595824501096610675e+02
5.108735058996444423e+00,1.010263022353047724e+01,1.584529221068598170e+00,-8.277785219529517624e-01,1.386960671622472496e-01,5.436415358920912988e-01,3.610938096094673710e+02
5.095998686535399003e+00,1.006900486765919744e+01,1.323603656530289774e+00,-7.763998106708301927e-01,1.302897846174825014e-01,6.166262287760950755e-01,3.626051691092736746e+02
5.082363868456897471e+00,1.002335985504847038e+01,1.069427383661552211e+00,-7.253511928471905179e-01,1.219154338875504118e-01,6.774970656874964581e-01,3.641165286090799782e+02
5.068259919508014910e+00,9.964884539947217235e+00,8.231926803113339686e-01,-6.762539052792327920e-01,1.138456040953573778e-01,7.278185447092905269e-01,3.656278881088862818e+02
5.054108179178947502e+00,9.892710581398594272e+00,5.861254767053500903e-01,-6.300475329321961748e-01,1.062397100575787345e-01,7.692549838986645350e-01,3.671392476086925853e+02
5.040323392206995656e+00,9.805908294991102281e+00,3.594905503258533641e-01,-5.871745213166329469e-01,9.917428274284990908e-02,8.033620249669660707e-01,3.686506071084988889e+02
5.027315033984558923e+00,9.703482733616612066e+00,1.445968854065548259e-01,-5.477484478413395808e-01,9.267078008306324499e-02,8.314948974023831374e-01,3.701619666083051925e+02
5.015488584560888974e+00,9.584369480913597528e+00,-5.719678024659754362e-02,-5.116832117038115912e-01,8.671703115731231593e-02,8.547867847409282849e-01,3.716733261081114961e+02
5.010083067757229891e+00,9.511865938376653062e+00,-1.565741205593188801e-01,-4.787827423544891436e-01,8.128218150663074626e-02,8.741626236536528261e-01,3.724746268079441620e+02
5.001822835570933101e+00,9.356617469003392529e+00,-3.284305910165240538e-01,-4.487991141165214026e-01,7.632641114746274713e-02,8.903671344617197780e-01,3.739859863077504656e+02
4.995747719573323309e+00,9.181742929658739172e+00,-4.832514733456675371e-01,-4.214681032439552277e-01,7.180690669145753380e-02,9.039957998239520620e-01,3.754973458075567692e+02
4.992085411487270363e+00,8.986667445295463352e+00,-6.201899132152663974e-01,-4.221519297930419468e-01,6.716654948403379122e-02,9.040334080123473282e-01,3.770087053073630727e+02
4.990715706907352889e+00,8.772345379343899907e+00,-7.398562071728360667e-01,-4.228265713960671079e-01,6.252399914272213644e-02,9.040511269019287921e-01,3.785200648071693763e+02
4.991358761283062329e+00,8.540458568556859476e+00,-8.435539249232869574e-01,-4.234919798442134398e-01,5.787956150042494752e-02,9.040489474404286296e-01,3.800314243069756799e+02
4.993755049891750453e+00,8.292615923085328689e+00,-9.325189693511629629e-01,-4.241481087420284624e-01,5.323354286496145837e-02,9.040268645148796800e-01,3.815427838067819835e+02
4.997663763069937204e+00,8.030360143402678119e+00,-1.007924813656349672e+00,-4.247949135235477569e-01,4.858624991810443078e-02,9.039848769550391516e-01,3.830541433065882870e+02
5.002861328280457265e+00,7.755174166057751783e+00,-1.070887473944151846e+00,-4.254323514674152040e-01,4.393798961437751088e-02,9.039229875346420640e-01,3.845655028063945906e+02
5.009140050858990278e+00,7.468487364849883292e+00,-1.122470238341222615e+00,-4.260603817109914204e-01,3.928906907969142298e-02,9.038412029704860906e-01,3.860768623062008942e+02
5.010525506288300512e+00,7.414233182234686304e+00,-1.130012971597572191e+00,-4.266789652634364050e-01,3.463979550989702144e-02,9.037395339193453614e-01,3.863530314955796143e+02
5.019292211188261632e+00,7.107982493411193481e+00,-1.161548097417768100e+00,-4.272880650177586226e-01,2.999047606933331889e-02,9.036179949727176641e-01,3.878643909953859179e+02
5.028583557922805092e+00,6.793404509885636600e+00,-1.183825273627877372e+00,-4.028641510430763240e-01,2.827621146063960186e-02,9.148228963410210968e-01,3.893757504951922215e+02
5.037858318576200922e+00,6.471957486027451800e+00,-1.197811713405152911e+00,-3.778818278836264533e-01,2.652275325244299320e-02,9.254738611734204534e-01,3.908871099949985251e+02
5.046457843755915107e+00,6.145138245816270661e+00,-1.204464949485889669e+00,-3.523842371721001565e-01,2.473312946777701457e-02,9.355285253263885270e-01,3.923984694948048286e+02
5.053731182295258861e+00,5.814425378181260484e+00,-1.204711440159850877e+00,-3.264192664654280152e-01,2.291070123639866313e-02,9.449473859686731148e-01,3.939098289946111322e+02
5.059032188075716974e+00,5.481285492848916086e+00,-1.199450495135970129e+00,-3.000391748703880035e-01,2.105913651821495272e-02,9.536943988050909926e-01,3.954211884944174358e+02
5.061716691734084783e+00,5.147179445465877912e+00,-1.189558086366187428e+00,-2.733001190640053646e-01,1.918237683562340479e-02,9.617375324580696994e-01,3.969325479942237394e+02
5.061139725024524694e+00,4.813568558104612372e+00,-1.175890559975417915e+00,-2.462615881348529379e-01,1.728459760617787055e-02,9.690492623674467065e-01,3.984439074940300429e+02
5.056652786016830881e+00,4.481920861325400018e+00,-1.159288265026934273e+00,-2.189857595452356365e-01,1.537016293889045815e-02,9.756069880887633383e-01,3.999552669938363465e+02
5.047601133673047080e+00,4.153717384142824542e+00,-1.140579114500667401e+00,-1.915367919600435564e-01,1.344357599933389616e-02,9.813933602740569917e-01,4.014666264936426501e+02
5.033321100658776359e+00,3.830458518529051393e+00,-1.120582093574105764e+00,-1.639800734685908645e-01,1.150942624386876341e-02,9.863965067926653285e-01,4.029779859934489536e+02
5.013137413515122986e+00,3.513670485481931838e+00,-1.100110730071124587e+00,-1.363814456457021207e-01,9.572334958076867892e-03,9.906101512134017906e-01,4.044893454932552572e+02
4.986360509541539088e+00,3.204911930195663672e+00,-1.079976541784662958e+00,-1.088064248240842857e-01,7.636900599460445978e-03,9.940336209938951395e-01,4.060007049930615608e+02
4.952283839922772657e+00,2.905780674496535099e+00,-1.060992475282162451e+00,-8.131944182338186888e-02,5.707645435578260866e-03,9.966717469483699077e-01,4.075120644928678644e+02
4.910181148777745364e+00,2.617920655449982981e+00,-1.043976350765712713e+00,-5.398312022478232025e-02,3.788964887615082263e-03,9.985346596267338226e-01,4.090234239926741679e+02
4.859303717913654452e+00,2.343029079911461476e+00,-1.029754327584090356e+00,-2.685761119345899187e-02,1.885080842928327964e-03,9.996374918895332140e-01,4.105347834924804715e+02
4.838838441922650446e+00,2.254097351460734089e+00,-1.026083501387672126e+00,-0.000000000000000000e+00,0.000000000000000000e+00,1.000000000000000000e+00,4.110507207644066057e+02
4.769546373854029575e+00,2.009303905036770921e+00,-1.019202183980184584e+00,1.082944476658308096e-06,7.751152965769997349e-02,9.969914557151182688e-01,4.125620802642129092e+02
4.690605795283310009e+00,1.781962222622663239e+00,-1.016426984111149512e+00,2.203063282637484331e-06,1.576838043413600343e-01,9.874896545501538059e-01,4.140734397640192128e+02
4.602071263144447144e+00,1.573981371680797992e+00,-1.017947968416989424e+00,3.339462281418184649e-06,2.390213304985419618e-01,9.710143168643574629e-01,4.155847992638255164e+02
4.503970147062049456e+00,1.387352622942422675e+00,-1.023973408603824353e+00,4.468443086697783287e-06,3.198279009715123689e-01,9.474756533759531862e-01,4.170961587636318200e+02
4.396303361112039454e+00,1.224158125688481702e+00,-1.034730663998469691e+00,5.565770466022136728e-06,3.983688839489273881e-01,9.172252898117824182e-01,4.186075182634381235e+02
4.279046045330651360e+00,1.086579965244055979e+00,-1.050467144983100010e+00,6.609189840916630004e-06,4.730514125233555300e-01,8.810348239802877623e-01,4.201188777632444271e+02
4.152148202741103411e+00,9.769096416168167041e-01,-1.071451361396212665e+00,7.580611324974813686e-06,5.425807067712457021e-01,8.400036765289481400e-01,4.216302372630507307e+02
4.015535297759756261e+00,8.975580099629117958e-01,-1.097974060342470581e+00,8.467482058952190987e-06,6.060582983568790771e-01,7.954202278802481318e-01,4.231415967628570343e+02
3.901451902868116495e+00,8.603002998169562154e-01,-1.123018896721364790e+00,7.374748887082644029e-06,5.479129708850241087e-01,8.365353407248015127e-01,4.243219714325128393e+02
3.746829037329970635e+00,8.433207678993938083e-01,-1.159999748970391487e+00,6.213250222029318707e-06,4.852873960508151674e-01,8.743547010199091973e-01,4.258333309323191429e+02
3.584930419085974318e+00,8.548917728831326723e-01,-1.200872183768741719e+00,4.998329075247919533e-06,4.189568323801995953e-01,9.080061522792486350e-01,4.273446904321254465e+02
3.417040668422225203e+00,8.927373724728445703e-01,-1.244573760706924492e+00,3.748746790030122083e-06,3.499190519441058855e-01,9.367799405796887191e-01,4.288560499319317501e+02
3.244402947905400403e+00,9.546845892293820413e-01,-1.290054027854417695e+00,2.485300056543149228e-06,2.793230445868407630e-01,9.601971863927539763e-01,4.303674094317380536e+02
3.068224982131965373e+00,1.038654424614413374e+00,-1.336270070470838345e+00,1.229124788491813099e-06,2.083753093355090458e-01,9.780489407273136315e-01,4.318787689315443572e+02
2.889684863267639070e+00,1.142653231483338860e+00,-1.382182091655836276e+00,-0.000000000000000000e+00,1.382410334876689184e-01,9.903986150334931349e-01,4.333901284313506608e+02
2.709947378005618468e+00,1.264849894601319580e+00,-1.426632663329303607e+00,3.060653003691776730e-02,1.449246844450239324e-01,9.889691987911501947e-01,4.349014879311569644e+02
2.661991564855194170e+00,1.301784325379228058e+00,-1.437788910282044696e+00,6.146286719721094638e-02,1.515250563110326354e-01,9.865406597124298793e-01,4.353038818559598440e+02
2.482321427515898904e+00,1.456063933683509948e+00,-1.476160404347200528e+00,9.247836397532795127e-02,1.580193822044452245e-01,9.830959398981221620e-01,4.368152413557661475e+02
2.304289175151437608e+00,1.625072022751844703e+00,-1.509695372249923784e+00,1.235589396115913396e-01,1.643853700724047240e-01,9.786269148905611948e-01,4.383266008555724511e+02
2.129057482329381301e+00,1.807482549800472960e+00,-1.536834902604935715e+00,1.546084487354588977e-01,1.706015667745199027e-01,9.731347969288191013e-01,4.398379603553787547e+02
1.957791748650824726e+00,2.002018297677752745e+00,-1.555992983362067150e+00,1.855301386618663506e-01,1.766477101035287267e-01,9.666303089409561400e-01,4.413493198551850583e+02
1.791665413645404659e+00,2.207445394427651308e+00,-1.565549781082399505e+00,2.162281449459461102e-01,1.825050556052576489e-01,9.591336163495454148e-01,4.428606793549913618e+02
1.631865267673836550e+00,2.422567979811828032e+00,-1.563844776896756272e+00,2.466089717852627261e-01,1.881566660429074833e-01,9.506740156639568173e-01,4.443720388547976654e+02
1.479596782529807308e+00,2.646222996008762873e+00,-1.549169730060217631e+00,2.765829042357236811e-01,1.935876531359149721e-01,9.412893910152504429e-01,4.458833983546039690e+02
1.336089485357084383e+00,2.877275080068956381e+00,-1.519761439285032711e+00,3.060653029775057821e-01,1.987853636523226053e-01,9.310254612581234657e-01,4.473947578544102726e+02
1.202602399524473009e+00,3.114611535971425038e+00,-1.473794271178180182e+00,3.349777391928526749e-01,2.037395048402665110e-01,9.199348500914007465e-01,4.489061173542165761e+02
1.079964880790918569e+00,3.357183243792220217e+00,-1.410160154236545837e+00,3.582407785243859055e-01,1.595291267620868036e-01,9.198989087485471838e-01,4.504174768540228797e+02
1.076869979423842993e+00,3.363808732172092419e+00,-1.408139824233767490e+00,3.830286021945072394e-01,1.099627482331674566e-01,9.171680783269394732e-01,4.504582057890055466e+02
9.695703079301525307e-01,3.612484042723184352e+00,-1.322419597874076258e+00,4.091569416659316394e-01,5.455867555630646709e-02,9.108314597158594372e-01,4.519695652888118502e+02
8.725979196221677059e-01,3.864521537606255830e+00,-1.220550453594649198e+00,4.362760300930439983e-01,-7.026430521653519168e-03,8.997854493379952023e-01,4.534809247886181538e+02
7.855239488690913818e-01,4.119071904852196653e+00,-1.103550611892193611e+00,4.638202105758916227e-01,-7.487850120382888441e-02,8.827593229860581925e-01,4.549922842884244574e+02
7.079558941976739073e-01,4.375299456971704082e+00,-9.723741769559330894e-01,4.909684922007712671e-01,-1.486766144992688332e-01,8.583968802175000468e-01,4.565036437882307609e+02
6.395360217255441349e-01,4.632378317494000974e+00,-8.279151796856266676e-01,5.166389570868764602e-01,-2.275369523784116221e-01,8.254157275715848785e-01,4.580150032880370645e+02
5.799398904926686971e-01,4.889488660217121030e+00,-6.710113661514649497e-01,5.395456596525755044e-01,-3.099003435851306332e-01,7.828488092830474532e-01,4.595263627878433681e+02
5.288716167920306521e-01,5.145816393145453027e+00,-5.024751485666900663e-01,5.583391472246381770e-01,-3.935346500509941947e-01,7.303340851183829363e-01,4.610377222876496717e+02
4.860592667943907097e-01,5.400552908106262429e+00,-3.231244489020986266e-01,5.718225848905801323e-01,-4.757146807423053847e-01,6.683670203827397627e-01,4.625490817874559752e+02
4.512570958336781790e-01,5.652888060423313377e+00,-1.337587638055471040e-01,5.791903721857930565e-01,-5.535842131095817242e-01,5.984003941869756593e-01,4.640604412872622788e+02
4.242478417090093101e-01,5.902003117888133588e+00,6.486484855358526369e-02,5.802030275221581324e-01,-6.246121877499304365e-01,5.227083907575689192e-01,4.655718007870685824e+02
4.048417207863344025e-01,6.147067073417183281e+00,2.720285604513787425e-01,5.752246244359071614e-01,-6.869883685052456945e-01,4.440310946105804346e-01,4.670831602868748860e+02
3.928755153489508767e-01,6.387232912213570479e+00,4.870507328140697978e-01,5.651098842754551654e-01,-7.398221780541009984e-01,3.651218475433477550e-01,4.685945197866811895e+02
3.882117479107081714e-01,6.621633816893433888e+00,7.092830267709852032e-01,5.509962866799611447e-01,-7.831054291465333606e-01,2.883556465653444034e-01,4.701058792864874931e+02
3.907379384578454906e-01,6.849379293804647162e+00,9.381076563171116822e-01,5.340851835016224847e-01,-8.175032279228040544e-01,2.155028749224333906e-01,4.716172387862937967e+02
4.003659408202805414e-01,7.069551203456467370e+00,1.172934770443063268e+00,5.154757940885218437e-01,-8.440822486204471176e-01,1.476816280810095139e-01,4.731285982861001003e+02
4.170313545894049345e-01,7.281199677598712228e+00,1.413199953641921525e+00,4.960745394907171701e-01,-8.640663156189780647e-01,8.543683913697573684e-02,4.746399577859064038e+02
4.406930091971871799e-01,7.483338905026248433e+00,1.658361834202233265e+00,4.765694112779720326e-01,-8.786624412873604850e-01,2.887750863739977844e-02,4.761513172857127074e+02
4.713325169504642420e-01,7.674942767643829100e+00,1.907899790145502594e+00,4.574458131724787879e-01,-8.889608202164083206e-01,-2.218080546644146320e-02,4.776626767855190110e+02
5.089538919758274105e-01,7.854940307722512394e+00,2.161311743087862780e+00,4.390216570551887521e-01,-8.958922234213534397e-01,-6.809631891416674521e-02,4.791740362853253146e+02
5.534301393766203336e-01,8.022519517105273223e+00,2.418010526304070318e+00,4.377359627362976680e-01,-8.929720586907387014e-01,-1.048242783182912752e-01,4.806853957851316181e+02
6.043521836759345733e-01,8.177433677740364004e+00,2.677219892230289222e+00,4.357040866254762168e-01,-8.885092439664269426e-01,-1.439210626839167451e-01,4.821967552849379217e+02
6.491663351416483430e-01,8.289693108417614198e+00,2.883062224949914931e+00,4.327876270966153904e-01,-8.822208965249840329e-01,-1.854215725495127753e-01,4.833893908015702436e+02
7.113447549058143915e-01,8.419212293520681456e+00,3.144696025913679360e+00,4.288339175184839869e-01,-8.737954135859177240e-01,-2.293099352011710723e-01,4.849007503013765472e+02
7.784914425453368647e-01,8.535851568798166866e+00,3.406253478688041625e+00,4.236789228344031155e-01,-8.628985131969706401e-01,-2.755037681563308194e-01,4.864121098011828508e+02
8.501379508088228176e-01,8.639469122979125615e+00,3.666877420646475816e+00,4.171523561647995093e-01,-8.491838153461589433e-01,-3.238375510966833848e-01,4.879234693009891544e+02
9.258338929346991986e-01,8.729870927654358681e+00,3.925706733381633562e+00,4.090854709793207977e-01,-8.323088799116029612e-01,-3.740467963422762221e-01,4.894348288007954579e+02
1.005144640907320364e+00,8.806809790422910567e+00,4.181872693715753542e+00,3.993217481407001501e-01,-8.119571291608915775e-01,-4.257555188916035127e-01,4.909461883006017615e+02
1.087649083683986495e+00,8.869984197642176937e+00,4.434495292485685525e+00,3.877302500475288127e-01,-7.878651640291761682e-01,-4.784702044091774242e-01,4.924575478004080651e+02
1.172937434285594271e+00,8.919036941464659307e+00,4.682679505503149819e+00,3.742207554667540959e-01,-7.598536363584462716e-01,-5.315837445696941499e-01,4.939689073002143687e+02
1.260609074812446107e+00,8.953553525003009383e+00,4.925511500888906546e+00,3.587590080530786429e-01,-7.278582495947236719e-01,-5.843922848889058219e-01,4.954802668000206722e+02
1.350270428561532787e+00,8.973060338596795305e+00,5.162054766709263554e+00,3.413797148146179294e-01,-6.919560505762512026e-01,-6.361263352385332359e-01,4.969916262998269758e+02
1.441532848484093021e+00,8.977022599255610302e+00,5.391346142505494043e+00,3.221946128363761819e-01,-6.523815469669790312e-01,-6.859948605027513802e-01,4.985029857996332794e+02
1.534010511233472318e+00,8.964842044420773703e+00,5.612391737900191302e+00,3.013932628153715987e-01,-6.095279049861298537e-01,-7.332379110307402081e-01,5.000143452994395830e+02
1.627318306010598459e+00,8.935854370217555243e+00,5.824162720985741615e+00,2.792353307158009224e-01,-5.639307556547206168e-01,-7.771806308103239580e-01,5.015257047992458865e+02
1.721069707318667152e+00,8.889326403358051465e+00,6.025590958648207263e+00,2.560347853708039856e-01,-5.162355503447769722e-01,-8.172802733703730116e-01,5.030370642990521901e+02
1.814874620589744580e+00,8.824452994798409833e+00,6.215564490352664784e+00,2.321381806966300310e-01,-4.671529532416102137e-01,-8.531588265619132194e-01,5.045484237988584937e+02
1.908337189440134196e+00,8.740353622148239410e+00,6.392922816210405479e+00,2.079004185624860612e-01,-4.174092405377032300e-01,-8.846168333664472527e-01,5.060597832986647973e+02
2.000665607407077218e+00,8.636576205903676140e+00,6.556535593511978455e+00,1.836616961767028322e-01,-3.676992724884041164e-01,-9.116280087672794519e-01,5.075711427984711008e+02
2.090271350241108106e+00,8.513623856198183404e+00,6.705842405956606633e+00,1.597286980432236214e-01,-3.186482601932155156e-01,-9.343179487183437271e-01,5.090825022982774044e+02
2.175143496622826245e+00,8.372472611398638520e+00,6.841227719644892957e+00,1.363618225096587255e-01,-2.707859370984045944e-01,-9.529325420152169324e-01,5.105938617980837080e+02
2.214704030339704310e+00,8.292617175913399308e+00,6.902820010757674041e+00,1.137688233695754170e-01,-2.245338625697654300e-01,-9.678022522130251826e-01,5.113558291832487157e+02
2.285167591199577242e+00,8.117723258974132605e+00,7.012255426634633970e+00,9.210411276655211532e-02,-1.802042761561720718e-01,-9.793075366127417247e-01,5.128671886830550193e+02
2.345619107789873148e+00,7.926987967514051547e+00,7.109470830899419447e+00,7.147231886188711025e-02,-1.380076017960118473e-01,-9.878489811114946617e-01,5.143785481828613229e+02
